ply
format ascii 1.0
element vertex 522
property double x
property double y
property double z
property double ux
property double uy
property double uz
property uchar red
property uchar green
property uchar blue
end_header
-67.0450671 11.87489204 -43.33399526 -0.4116464612 -0.002514001877 -0.2636193798 214 64 41
-66.21428472 12.70492034 -44.66472897 -0.4042439663 -0.0006828164167 -0.2724544687 213 64 42
-69.90746213 15.48986967 -38.54525165 -0.4286986643 0.005244017047 -0.2352947138 214 64 41
-71.45813924 18.6271841 -35.51040339 -0.4435752764 -0.003125014378 -0.2093292897 215 64 40
-65.14393291 20.45207662 -46.3059098 -0.4236202044 0.002001689736 -0.2819708552 223 64 32
-78.03056144 21.14875502 -15.01137225 -0.4899066237 -0.00249259048 -0.08806981774 218 64 37
-76.94945048 21.36620611 -19.94587581 -0.4805434346 -0.006744809898 -0.1138317259 216 64 39
-61.45259475 28.72414824 -51.32434661 -0.3799549275 0.00153706609 -0.3075299166 214 64 41
-65.99030653 29.21509128 -45.41602947 -0.4062644188 0.001480705089 -0.2811913069 216 64 39
-76.17333427 31.52454745 -23.01892783 -0.4867497933 -0.005584271296 -0.1348906089 221 64 34
-76.3943959 33.47048085 -22.2030771 -0.4859004241 -0.002264668878 -0.1334004718 221 64 34
-78.63672023 48.43090987 8.109786656 -0.4867089414 -4.479978737e-05 0.05861158265 215 64 40
-77.52720581 50.11019358 -16.84227148 -0.4860158081 -0.0129550894 -0.1090676351 218 64 37
-77.92962134 51.2635227 -14.98728864 -0.4871894224 -0.01218379004 -0.09886528983 218 64 37
-71.53288239 50.70020888 -35.17819056 -0.4559682763 0.0004485601197 -0.2158051635 221 64 34
-70.17677031 51.10627572 -38.18562073 -0.4389866196 -0.01230661325 -0.235853386 218 64 37
-66.09521437 56.64105722 -44.86884254 -0.4300748972 0.0009566238748 -0.2859463506 226 64 29
-67.38819044 57.22711516 -42.92312668 -0.4192420105 0.003233242187 -0.2645502043 217 64 38
-69.1631149 -59.33377139 -40.00122982 -0.426109724 -0.007104475101 -0.232423732 213 64 42
-67.79780695 -57.80382521 -41.98023643 -0.4269234476 0.006121825034 -0.2610272578 219 64 36
-71.3459872 -56.29576238 -35.33874901 -0.46514195 -0.0008834689271 -0.2099130676 223 64 32
-73.98149428 -54.75730266 -29.00658944 -0.4675754259 -0.006969343719 -0.1666462761 217 64 38
-59.44980616 -53.00990479 -53.46446397 -0.3694500052 0.01084805008 -0.3204039366 214 64 41
-64.99721383 -51.16173203 -46.45596627 -0.4121954741 -0.00419868292 -0.2888632303 220 64 35
-78.27902039 -51.25645013 -12.89853618 -0.4939099428 -0.01199302834 -0.06834534149 218 64 37
-75.13016432 -48.53255217 -25.82475842 -0.4729849201 -0.01178354316 -0.156689521 218 64 37
-62.17109474 -45.18592578 -50.20213525 -0.4013457273 -0.003544487752 -0.3053550717 221 64 34
-69.23302219 -39.37477977 -39.82827062 -0.4203279321 -0.01280626742 -0.2310658689 210 64 45
-70.9839542 -39.35137573 -36.21806138 -0.4257972151 -0.01605468154 -0.2067097657 207 64 48
-60.70071276 -29.54510179 -52.16500325 -0.373902473 -0.0058591114 -0.3213144787 216 64 39
-76.12655759 -27.12291597 -23.10165669 -0.5055956673 0.00884402793 -0.1370065325 229 64 26
-73.5716183 -26.95922503 -30.27768488 -0.482131466 0.001011017811 -0.2090829934 230 64 25
-61.98044537 -23.82683676 -50.50691336 -0.3918813972 0.003012792679 -0.3044855464 217 64 38
-73.12122155 -21.93841175 -31.30137281 -0.4796395442 -0.0001975155048 -0.2097957843 229 64 26
-65.50798562 -21.16528545 -45.54581049 -0.4190618571 0.001662217533 -0.2890243551 223 64 32
-72.34597124 -11.10881202 -33.84482997 -0.4479684119 0.00160965123 -0.2008957694 215 64 40
-74.36599983 -10.74538377 -27.90553272 -0.4745808926 -0.007042983146 -0.174864155 221 64 34
-71.94756711 -8.689872577 -34.30538894 -0.4409872325 -0.001083963501 -0.2140137599 215 64 40
-72.65966293 -6.134063499 -32.87702965 -0.4414066113 0.002770028315 -0.2023592078 213 64 42
-61.81105983 -1.478386184 -50.75370509 -0.3838508483 -0.00272620486 -0.3049605377 215 64 40
-78.26276717 0.4239822224 11.13751229 -0.4931373121 0.001926769511 0.07853998524 219 64 36
-79.08733402 4.763258994 -6.279031253 -0.4979700012 -0.004908397773 -0.03786329776 219 64 36
-61.45111915 4.944533642 -51.23858617 -0.3798484303 -0.002294346129 -0.3127743883 215 64 40
-72.62620515 5.139694451 -32.70462128 -0.4598996195 -0.003172993421 -0.1983909789 219 64 36
-69.94031327 7.484799395 -38.62592517 -0.4437747888 0.003214379752 -0.2432818401 222 64 33
-70.9438705 8.866303815 -36.49157879 -0.4427207007 -0.000833445759 -0.2256086243 218 64 37
-68.98072011 9.228474806 -39.78343328 -0.4317349955 -0.0004282004954 -0.2437541388 217 64 38
-72.63981639 14.52452477 -33.09204977 -0.4441383371 0.007362543837 -0.1808728257 210 64 45
-68.71871369 15.03596367 -40.63929205 -0.4136924634 0.004271273547 -0.2414990564 210 64 45
-70.08155791 17.09332987 -38.17283699 -0.4376591641 0.002820722507 -0.2320537115 217 64 38
-68.61276536 18.00100722 -40.90908108 -0.4220681546 0.006173769498 -0.2470531243 214 64 41
-58.35517705 18.68529605 -54.71811922 -0.368956199 0.001486239296 -0.3387577167 219 64 36
-66.41361027 26.60174439 -44.43010561 -0.4144530443 -0.004819151269 -0.2682439598 216 64 39
-69.26753207 28.48470063 -39.90430781 -0.4334996117 -0.001028376353 -0.2486873101 219 64 36
-75.07709975 29.9908324 -26.72079484 -0.4904860282 -0.01454929558 -0.1567351391 226 64 29
-64.20217247 33.44061308 -47.47996132 -0.3945727115 -0.007173480163 -0.2944451718 216 64 39
-74.86640071 37.05915844 -27.29525351 -0.4758671214 0.008614811669 -0.1696254044 221 64 34
-76.21996565 40.00727511 -22.63509579 -0.4803887303 0.01517486987 -0.1363662674 219 64 36
-69.00817693 39.71118714 -40.12631885 -0.4277110859 0.000748212798 -0.2435478006 215 64 40
-65.19304899 39.97863788 -46.16853289 -0.3906675477 0.000132704548 -0.2779604146 210 64 45
-73.41833868 44.60345975 -31.00321456 -0.4491117162 -0.001661120395 -0.1791208171 212 64 43
-64.57264419 46.06550661 -47.06378654 -0.4190732022 -0.00635978058 -0.294604624 224 64 31
-58.52848262 49.20784631 -54.63980036 -0.3649852197 -0.007941529215 -0.339108479 218 64 37
-71.57079507 50.27922407 -35.20193683 -0.4580434949 0.0001825792459 -0.2139383464 221 64 34
-67.93933974 51.28917678 -41.90434642 -0.4259420355 -0.006568948819 -0.2555104737 217 64 38
-61.44794936 54.05146271 -51.26353711 -0.3803118525 -8.294060791e-05 -0.3094152403 215 64 40
-72.22319551 56.91423019 -33.89962009 -0.4582034563 -0.00903803518 -0.2155140438 222 64 33
-63.03577774 57.89101405 -49.2380051 -0.4081683768 -0.0007467803189 -0.3105847726 225 64 30
-67.4186796 -55.25978309 -42.70955023 -0.4342221688 0.008993631585 -0.2716824708 224 64 31
-74.68890048 -55.24317373 -27.09875072 -0.4689231057 -0.007824807102 -0.1442774575 215 64 40
-78.63684445 -37.94255591 -9.633665798 -0.4890908804 0.00267948009 -0.05159476288 215 64 40
-74.69566 -31.77101867 -27.30710939 -0.4632628651 0.002480235665 -0.1692106621 216 64 39
-63.51092347 -30.75394867 -48.63054248 -0.3820387929 -0.004299043019 -0.2980967838 212 64 43
-68.45481264 -23.16099404 -41.02766243 -0.433165921 0.007485495201 -0.2535572496 220 64 35
-56.76842534 -13.61307309 -56.5867995 -0.3525827483 0.005873260698 -0.3383224204 214 64 41
-68.99459333 -11.21937791 -40.17922644 -0.4438295302 -0.002361441032 -0.2480606651 223 64 32
-76.54670817 -7.670866551 -20.98007142 -0.4812593599 -0.002107493507 -0.1300468561 218 64 37
-68.3274497 -2.711937322 -41.7629513 -0.4414896376 0.0004589338521 -0.2575812833 224 64 31
-72.67185628 0.04220647744 -32.66791599 -0.4562381592 0.002604490783 -0.2029718857 219 64 36
-69.44283034 4.607267621 -39.64106279 -0.4430896048 0.001746245581 -0.2525212282 223 64 32
-62.27795804 5.907074682 -50.18658484 -0.3799294205 -0.004513634986 -0.3159780764 216 64 39
-78.31320157 11.68335934 -11.37926797 -0.4810936701 0.003644549299 -0.07505080066 213 64 42
-76.41583872 13.15334625 -22.23335067 -0.4805570788 -0.001180964544 -0.121705153 217 64 38
-57.8053961 13.21168469 -55.58055745 -0.3686429842 -0.005404894651 -0.3436486398 221 64 34
-69.81298819 14.24788177 -38.77584024 -0.4314944335 0.003166586473 -0.2351120028 215 64 40
-66.45172595 22.29423562 -44.47948956 -0.4271451782 -3.216887576e-05 -0.2691396345 221 64 34
-70.67804908 22.6782894 -36.75960599 -0.4362317202 -0.004558090935 -0.2217252558 214 64 41
-77.36794565 24.50479098 -18.01433296 -0.4784470895 -0.004486617733 -0.1118990305 215 64 40
-58.49536616 24.43064584 -54.77227184 -0.3698162372 0.0003615724353 -0.3360108653 219 64 36
-73.1928146 25.28772075 -31.62663912 -0.4532367865 -0.006528512086 -0.1874679678 215 64 40
-57.49979826 29.11501371 -56.06614636 -0.3672046327 -0.001853783753 -0.325518369 215 64 40
-64.76862853 37.58592276 -46.80345676 -0.4020302445 -0.005587532103 -0.2834616251 215 64 40
-58.08964481 46.85636646 -55.01372989 -0.371134521 -0.000244606355 -0.3363192436 219 64 36
-68.29330159 47.67499637 -41.42476006 -0.4305585009 -0.01171137446 -0.2495960451 218 64 37
-68.97728319 56.2565618 -40.28617672 -0.4278226718 -0.001972936853 -0.2382030231 214 64 41
-74.52079648 -51.32185738 -27.57669733 -0.4684511139 -0.01298575452 -0.1540331985 216 64 39
-76.2361728 -37.02238674 -22.68283261 -0.4664169529 0.002311782774 -0.1321071944 212 64 43
-59.30618768 -34.23310128 -53.52778419 -0.3783673108 -0.008033256659 -0.3216974905 217 64 38
-59.55311879 -19.25197065 -53.36089294 -0.3619538877 -0.004689295591 -0.3235460483 213 64 42
-79.12981939 -11.62001435 -0.4369224333 -0.5113429821 0.002091188605 0.00700862874 224 64 31
-74.9555204 26.52111874 -27.41791075 -0.4701524516 -0.006977098062 -0.1633511702 218 64 37
-70.84336892 27.25415378 -36.68734372 -0.4386375233 -0.001675933193 -0.2192532166 215 64 40
-69.7197123 36.66750969 -38.72540342 -0.4403711845 0.003007237695 -0.2488951509 221 64 34
-67.35936258 43.33964662 -42.9108559 -0.4125111597 0.007556363017 -0.2616797951 214 64 41
-70.27775089 -56.5524421 -37.33796889 -0.4461865207 -0.006185913242 -0.2248778271 219 64 36
-68.25116149 -46.32614065 -41.5600239 -0.4592180679 -0.005673880969 -0.2555367963 230 64 25
-66.05367208 -32.52090589 -44.94926421 -0.4003684649 0.0005103338403 -0.265046768 210 64 45
-64.42131515 -13.45276165 -47.34533392 -0.388124258 -0.004380915513 -0.2868593616 211 64 44
-68.71021394 -3.201210639 -41.02774477 -0.4388207707 0.0009021821693 -0.2575994367 223 64 32
-71.72218125 -58.92889815 -34.81826399 -0.4545687411 -0.00560295348 -0.203557632 218 64 37
-75.9919204 -21.34905198 -22.83662561 -0.4935107313 -0.0005621491344 -0.1311642558 224 64 31
-68.68549958 8.419886736 -40.81947451 -0.4340251315 0.003024684431 -0.2510439303 220 64 35
-64.81633527 -32.07723271 -46.67778109 -0.396137577 0.004467745494 -0.2749155914 211 64 44
-70.07065936 -2.340018741 -38.12928722 -0.4459881007 6.209006044e-05 -0.2376452159 221 64 34
-41.56733541 29.7291559 -68.83205144 -0.2608260177 0.0005021284377 -0.4353313489 222 64 33
-39.87667349 36.59032015 -69.94866443 -0.2492570518 0.00356435418 -0.4293533172 217 64 38
-29.18152187 53.48159057 -75.13589544 -0.1918186839 -0.009870311178 -0.4578008641 217 64 38
-63.12511254 55.71588746 -49.16024552 -0.3963978471 0.001124162021 -0.300224912 218 64 37
-53.83001602 -56.46355823 -59.37635343 -0.3413855741 -0.002317655822 -0.362078858 218 64 37
-69.87870116 -52.98342491 -38.47222518 -0.4459786448 -0.002851328177 -0.2432704136 222 64 33
-63.47899259 -47.45324154 -48.51236972 -0.4086210856 -0.007528664421 -0.2931039664 220 64 35
-41.26671627 -45.54079982 -68.95920962 -0.262078882 -0.0002995295349 -0.4173429576 216 64 39
-64.91154798 -46.21364986 -46.61054233 -0.4322018365 -0.003742095237 -0.2893332392 228 64 27
-42.41356009 -39.66929591 -68.42492772 -0.2673397804 -0.008311184295 -0.4346507298 223 64 32
-42.95258195 -39.16628803 -68.02017726 -0.2704553701 -0.004524368085 -0.4323543688 223 64 32
-39.91340167 -32.21447295 -69.90419454 -0.2656858516 -0.008189270829 -0.4351049134 223 64 32
-43.3816917 -18.82287063 -67.79546907 -0.2767945071 0.003326673439 -0.4184294155 220 64 35
-50.43686549 -17.52249387 -62.43748613 -0.3206425989 0.006868016022 -0.382257634 218 64 37
-48.06495317 -16.35426925 -64.33011281 -0.3020483979 0.01034013468 -0.3940476423 217 64 38
-31.49948667 -15.89993436 -74.16050172 -0.2062145 -0.001650628472 -0.4528013872 218 64 37
-29.92110499 -13.14776508 -74.92696954 -0.1939961119 0.002330478733 -0.45697215 217 64 38
-29.92110499 -13.14776508 -74.92696954 -0.1939961119 0.002330478733 -0.45697215 217 64 38
-33.22337837 -10.53603066 -73.42642253 -0.2228107521 0.004545594572 -0.4613252624 224 64 31
-41.58891908 -9.846601951 -68.80519833 -0.2643690909 0.003092145624 -0.4241374574 219 64 36
-38.73869845 -7.654856797 -70.45707285 -0.2471867736 0.00396380258 -0.4603609663 229 64 26
-61.79159309 -6.657337904 -50.89351349 -0.3735791185 -0.0003878444858 -0.3076473543 212 64 43
-46.43701609 -6.218343462 -65.55990266 -0.2948012908 0.00465579274 -0.405291079 219 64 36
-55.01995598 -4.998398787 -58.27237462 -0.3416726182 0.001519234173 -0.352608452 215 64 40
-64.47579552 -4.560180854 -47.27991448 -0.388744822 -0.004644479571 -0.2767609741 209 64 46
-36.72222117 0.9754947032 -71.65962693 -0.230468199 -0.001278655075 -0.433548111 215 64 40
-61.06514837 2.710185226 -51.72576232 -0.3908933563 -0.0007581081247 -0.3131735998 219 64 36
-50.04200221 4.995475148 -62.69902305 -0.3191685914 0.001701401228 -0.3904955612 221 64 34
-45.98547745 8.833553289 -65.99744524 -0.2976802301 -0.0006043304959 -0.4102674763 222 64 33
-44.21727202 14.28971391 -67.19045093 -0.2849326955 0.001992240748 -0.4258429091 224 64 31
-47.99133531 14.50901435 -64.34089655 -0.3085382522 0.001745537509 -0.4010216744 222 64 33
-63.17504669 15.1469278 -49.08909816 -0.3942908988 -0.0001147055467 -0.3036181078 218 64 37
-36.90755549 18.51412138 -71.6519502 -0.2293293364 0.01025138139 -0.4259538719 212 64 43
-67.36959991 20.60996573 -42.832181 -0.4332083187 -0.0004494815411 -0.2624880303 222 64 33
-63.60743261 22.03982313 -48.44905272 -0.3971373771 0.001298912094 -0.2888873138 215 64 40
-63.59498321 22.73066513 -48.50677622 -0.3980977748 0.0007032431669 -0.2912182858 216 64 39
-59.37761285 25.64544196 -53.90862743 -0.3742055239 -0.003164640023 -0.321517132 216 64 39
-58.62391504 30.75675109 -54.79306906 -0.3674917509 -0.007701656158 -0.3240370962 215 64 40
-40.23052656 33.31095797 -69.64313457 -0.2461234725 0.0008757439246 -0.4307754756 217 64 38
-43.73556716 33.64696523 -67.5099603 -0.2772109323 -0.002972391694 -0.4106648761 217 64 38
-56.4878984 36.99909008 -56.89970666 -0.3554075987 -0.004571748146 -0.3546430618 220 64 35
-58.83811635 38.30752268 -54.27386186 -0.3667751578 -0.01065886673 -0.3327544924 217 64 38
-44.07749642 41.79038661 -67.30788454 -0.2823740194 0.0025275636 -0.4216179569 222 64 33
-28.6404112 55.19155264 -75.49106757 -0.1850666724 -0.002847063786 -0.4541990449 215 64 40
-42.43657122 55.90167083 -68.38736851 -0.2699217346 0.009908682459 -0.4332213268 224 64 31
-65.27749159 57.42691965 -45.940703 -0.4213786506 -0.001436672645 -0.2901747807 224 64 31
-39.23151883 58.00171584 -70.29153417 -0.2726452939 0.004058949657 -0.4374366932 226 64 29
-36.30640708 -51.77219625 -71.77906029 -0.22436565 -0.002995270789 -0.4227214185 210 64 45
-48.91240737 -49.78140818 -63.47864818 -0.3137830894 0.008728160709 -0.3839975162 217 64 38
-36.58929291 -49.45263784 -71.71253375 -0.2313085458 -0.01258161084 -0.4234134367 211 64 44
-44.99750506 -43.01036874 -66.5650148 -0.2869238532 0.009629519819 -0.4196529388 223 64 32
-44.89726416 -42.37069426 -66.68697896 -0.2864767404 0.007637628913 -0.4197876995 223 64 32
-46.75364921 -38.05227478 -65.18565284 -0.2941826865 -0.007191911469 -0.3892089499 214 64 41
-40.31750192 -37.54447201 -69.56964459 -0.2672466746 -0.01189255014 -0.4322897704 223 64 32
-40.34985163 -36.02957451 -69.60105099 -0.2713021907 -0.01026042428 -0.4360382037 225 64 30
-36.89726839 -33.54609736 -71.53816648 -0.2449907581 -0.006564016743 -0.4395185435 220 64 35
-41.75920641 -29.8272854 -68.65877572 -0.2628646219 6.095505624e-05 -0.4191586527 217 64 38
-38.26928516 -25.21464698 -70.611309 -0.2477603179 0.001392988201 -0.4336596575 219 64 36
-38.26928516 -25.21464698 -70.611309 -0.2477603179 0.001392988201 -0.4336596575 219 64 36
-52.203583 -22.45209 -60.98257718 -0.3290116223 -0.008060780016 -0.3754010295 219 64 36
-45.02177873 -15.03029914 -66.48297578 -0.2810493747 0.003188795887 -0.412965551 219 64 36
-67.54248143 -14.87469982 -42.34595544 -0.4105969209 -0.002673800363 -0.254273387 211 64 44
-68.37225603 -14.21072577 -41.29084117 -0.4153373394 -0.004581998612 -0.2417186927 210 64 45
-61.43499073 -13.20152129 -51.54516258 -0.3767096622 0.00052442459 -0.3161010613 215 64 40
-61.43499073 -13.20152129 -51.54516258 -0.3767096622 0.00052442459 -0.3161010613 215 64 40
-46.89019956 -10.79247263 -65.18419416 -0.2930798082 -0.000636179178 -0.3947882852 215 64 40
-33.91302746 -10.42399409 -73.08281503 -0.2249622211 0.004948210766 -0.4577739352 223 64 32
-31.53385954 -9.027823711 -74.21134742 -0.2165363388 0.000678697263 -0.4624324784 224 64 31
-58.96211062 -5.998771383 -54.2544422 -0.362848715 -0.003508805039 -0.3221421005 212 64 43
-43.07261808 -6.064196467 -67.8582104 -0.2793892506 0.004422784556 -0.4172746739 220 64 35
-62.49196987 -2.951622712 -49.94950029 -0.3774090377 -0.003355050708 -0.2972629544 210 64 45
-59.64065846 -2.158130867 -53.53410227 -0.3767167289 0.0005301096727 -0.331350251 220 64 35
-49.30121069 0.5869401508 -63.32841996 -0.31226847 0.001983974978 -0.3951516615 220 64 35
-52.89314526 1.285318698 -60.25056879 -0.337034229 0.0001994277625 -0.363122427 217 64 38
-46.53558648 5.943057343 -65.50895846 -0.2934594978 -0.0005863052671 -0.4229862213 225 64 30
-28.77604467 6.426618883 -75.30873408 -0.170107547 0.001852152096 -0.4588768561 214 64 41
-45.45340904 7.907967013 -66.28046276 -0.2889595689 0.0005747053188 -0.4172289164 222 64 33
-26.60613518 9.130348878 -76.1539144 -0.1720624663 0.000640703615 -0.4724902641 220 64 35
-69.40535557 11.38523328 -39.44219679 -0.4305454872 0.002025633085 -0.2352936826 215 64 40
-51.71701926 12.84039715 -61.48160652 -0.331628474 -0.001737158047 -0.3841702078 222 64 33
-70.71559007 14.31816442 -36.9279873 -0.4399745054 0.00253379223 -0.2182365897 215 64 40
-35.11292428 15.52354256 -72.46304021 -0.2253222139 -0.005001431066 -0.4310060772 213 64 42
-67.89500918 17.2428071 -42.16692507 -0.4197417298 0.002137090308 -0.2536491619 215 64 40
-53.27613371 17.71739156 -59.90010099 -0.3535489747 -0.004953452096 -0.3839146997 228 64 27
-39.87825344 19.46367029 -69.88406418 -0.2524300914 0.01163878266 -0.4427637779 223 64 32
-38.25030563 19.74650305 -70.90197834 -0.2448088393 0.01281489689 -0.4435733484 222 64 33
-52.85246915 20.22562964 -60.44931131 -0.3377401696 0.0005339478566 -0.377706142 222 64 33
-28.70235853 23.39613481 -75.33892074 -0.1705595766 -0.007045512897 -0.4594139142 215 64 40
-36.01910351 23.59260984 -72.04685586 -0.2465482716 0.001235241371 -0.4712304113 233 64 22
-31.22021944 24.02881212 -74.34722746 -0.1927282171 -0.005220641324 -0.4641518754 220 64 35
-45.48460886 24.70039658 -66.23275267 -0.2864901659 0.00882696973 -0.4267747001 225 64 30
-31.03255576 26.44850491 -74.43472242 -0.1885966489 -0.0001461665455 -0.457554617 217 64 38
-28.13805774 29.25014393 -75.57807559 -0.1859153573 -0.003580437997 -0.4692727743 221 64 34
-28.13805774 29.25014393 -75.57807559 -0.1859153573 -0.003580437997 -0.4692727743 221 64 34
-48.70510652 31.04102334 -63.96660661 -0.3122174172 -0.001061280842 -0.3885330596 218 64 37
-67.2616627 31.82032395 -43.12792225 -0.4118824191 -0.005372895874 -0.2674313916 215 64 40
-63.89577401 31.93537324 -48.35219221 -0.4021584337 -0.001514979958 -0.2957602276 219 64 36
-63.73222598 41.5827033 -48.29770441 -0.3932374621 0.007901634969 -0.2930913415 215 64 40
-40.80454643 45.52516347 -69.39322283 -0.2626750595 -0.008672740371 -0.439727798 224 64 31
-49.32905727 46.02418538 -63.24937004 -0.3106679797 0.01002812665 -0.3836962421 216 64 39
-64.60298692 47.12804784 -47.23652626 -0.4152495729 -0.01241941352 -0.2936182375 223 64 32
-27.53424194 48.50830838 -75.71344296 -0.1898692201 -0.005248897496 -0.4659819734 220 64 35
-28.00439967 49.71480362 -75.55696116 -0.192720033 -0.009269605839 -0.466024873 221 64 34
-54.52364629 50.76989286 -58.83072951 -0.3425708511 0.01535635262 -0.3603787919 218 64 37
-38.10568275 51.26846735 -70.90940524 -0.2726828785 0.009519053869 -0.4623876312 235 64 20
-38.54900836 51.86602639 -70.5232709 -0.2544682242 0.009349353838 -0.4438733939 224 64 31
-55.39441505 55.25847343 -58.17676781 -0.3457557756 -0.0009404636945 -0.3465944865 214 64 41
-50.74192213 58.50103995 -62.03361322 -0.3411298153 0.005287164667 -0.3841357528 225 64 30
-50.68195337 -53.37249509 -62.13224616 -0.3209959868 -0.002627873325 -0.3791721725 217 64 38
-42.32404673 -51.88253376 -68.19624107 -0.2664604974 0.01134416956 -0.4251135812 220 64 35
-45.7004418 -49.87115895 -66.03493451 -0.2877065775 -0.004923987784 -0.3963996434 214 64 41
-41.57686167 -46.47325429 -68.91627098 -0.2639348016 -0.0002022401497 -0.4164981564 216 64 39
-38.5349052 -42.95381267 -70.58155275 -0.2347007424 -0.002042216663 -0.4354811288 217 64 38
-26.58934601 -38.47149 -76.07494072 -0.1581540715 -0.003750237835 -0.4663770118 216 64 39
-43.23013841 -37.08371666 -67.70992858 -0.2799427327 -0.007061655395 -0.4223402265 222 64 33
-46.1613014 -36.04028419 -65.67982284 -0.3034167853 -0.005834071519 -0.3978598448 219 64 36
-63.12955511 -35.09322541 -48.93765485 -0.3944445474 0.01068142045 -0.2902414654 214 64 41
-36.51624929 -34.02915132 -71.68334254 -0.2406285385 -0.004166121946 -0.4377777035 219 64 36
-44.33774341 -28.14073721 -67.09054322 -0.273524065 -0.0009220121472 -0.4040799063 214 64 41
-56.07302269 -23.24819933 -57.42747304 -0.359483057 0.0006286499792 -0.3592339229 222 64 33
-43.78295109 -20.88814696 -67.26212673 -0.2733939549 0.0007017930051 -0.3936917057 210 64 45
-28.86693092 -20.65912053 -75.27770047 -0.174535206 -0.004496940528 -0.4525667122 212 64 43
-41.83677403 -19.42278758 -68.7243126 -0.2546779279 -0.004299903902 -0.4092421928 211 64 44
-41.83677403 -19.42278758 -68.7243126 -0.2546779279 -0.004299903902 -0.4092421928 211 64 44
-42.17041482 -18.49477708 -68.40369758 -0.2565400319 -0.002278008476 -0.413686238 213 64 42
-35.5367781 -17.09585074 -72.37190109 -0.2281115033 0.0002762557982 -0.4428636504 218 64 37
-44.91894848 -16.36171554 -66.63166052 -0.2779086779 0.002690055439 -0.4012345438 214 64 41
-43.75682522 -15.96399729 -67.42911461 -0.2684062053 -0.0009417908573 -0.399819955 211 64 44
-31.20916487 -15.12178088 -74.18367207 -0.2034999737 -9.515125899e-05 -0.4530532984 217 64 38
-27.81317059 -13.86383739 -75.79364062 -0.1754891804 0.00180872921 -0.4600195628 216 64 39
-62.47253055 -13.63819304 -49.96669923 -0.3812610909 3.890735877e-05 -0.3085242224 215 64 40
-66.01801451 -12.22204273 -45.16561081 -0.4079617795 -0.005078872783 -0.2733013023 215 64 40
-61.98899667 -9.793524193 -50.6856343 -0.3848312456 0.004629733945 -0.3107368208 217 64 38
-29.21206727 -8.940486057 -75.19603406 -0.1955128221 0.001554582095 -0.4660390035 221 64 34
-51.71620171 -3.299846311 -61.42307834 -0.3208732059 -0.003497869418 -0.3751895131 216 64 39
-31.18094748 2.509028001 -74.38454218 -0.1955890436 -0.0006579966377 -0.4677313477 222 64 33
-50.84206438 2.622568915 -62.23836584 -0.3242316006 0.002178554343 -0.3797027727 219 64 36
-42.43047112 3.12434625 -68.41200343 -0.2691778491 -0.001193716756 -0.4269250028 221 64 34
-35.48480691 5.69445547 -72.45786777 -0.241529165 -0.003339753809 -0.4636060523 229 64 26
-56.41779633 7.609797311 -56.85895347 -0.3607180194 -0.001039575128 -0.3522319619 221 64 34
-51.86950185 7.908953361 -61.41659975 -0.3406531594 0.004566739171 -0.3849421107 225 64 30
-49.03590395 10.27584937 -63.62496843 -0.3141091141 -0.003625433321 -0.3954516798 221 64 34
-52.57933238 11.32212865 -60.54977124 -0.3386283289 0.002819114534 -0.3807234056 223 64 32
-51.14405622 18.68472617 -61.8856996 -0.3191053403 -0.0003927374902 -0.384476522 219 64 36
-45.83130191 21.8063777 -66.10311527 -0.2828725493 0.002355659892 -0.4110495324 218 64 37
-48.61251017 22.37360719 -63.78308726 -0.2992990382 -0.0008124645062 -0.4048292988 220 64 35
-43.06313199 24.50317228 -67.77137815 -0.2739114661 0.00547132092 -0.4444987604 229 64 26
-32.53528015 28.58721923 -73.84631692 -0.2081045922 0.00238676982 -0.4554080327 219 64 36
-26.68312998 36.2112805 -76.06334348 -0.1751550258 -0.002740349896 -0.4753687425 222 64 33
-70.97579977 37.96845148 -36.44501081 -0.4453737878 0.002252634883 -0.2181149913 217 64 38
-58.69412674 37.15141946 -54.59241942 -0.3800530541 -0.006479785667 -0.3427042529 224 64 31
-43.01580161 41.09410491 -67.90151478 -0.2785095762 0.001530055631 -0.4228531277 222 64 33
-46.38223808 41.40887668 -65.68106959 -0.291674262 0.008594230666 -0.4111909324 221 64 34
-41.95839244 50.95842756 -68.50291922 -0.2784790333 0.003844264369 -0.4290676565 224 64 31
-52.15649322 51.36508145 -60.94400877 -0.3265390994 0.009853352344 -0.3673616404 215 64 40
-43.64408033 -56.31322579 -67.57189039 -0.2687591349 0.00777368641 -0.4188303789 218 64 37
-32.35123051 -54.31740941 -73.72535175 -0.1959185419 -0.005531352208 -0.4282542002 206 64 49
-74.80351026 -55.23438448 -27.09365705 -0.4644872619 -0.01526576345 -0.1447712676 213 64 42
-63.15573951 -52.33205194 -49.21604934 -0.3935309887 0.002107376815 -0.2997347357 217 64 38
-43.82262491 -50.20726998 -67.32617461 -0.2749211808 -0.0007707561774 -0.4034544381 214 64 41
-43.82262491 -50.20726998 -67.32617461 -0.2749211808 -0.0007707561774 -0.4034544381 214 64 41
-51.63443931 -49.11217514 -61.37991194 -0.3287249272 0.004926427042 -0.368997497 216 64 39
-31.47635339 -45.14880023 -74.25359835 -0.199591892 0.001864888042 -0.4655882634 222 64 33
-64.99864953 -45.01410359 -46.22078206 -0.424142102 -0.006281991599 -0.2861701312 224 64 31
-54.15777313 -42.53877208 -59.12177629 -0.3479594355 -0.001518730133 -0.3727526434 223 64 32
-46.14537672 -41.59883035 -65.68256286 -0.2909131723 0.002721097633 -0.4091868175 220 64 35
-43.82157855 -41.44409372 -67.46462398 -0.2758772001 -0.001746085139 -0.425167895 222 64 33
-50.62065508 -40.50687171 -62.32187411 -0.3037424331 -0.0006508973371 -0.3771891001 212 64 43
-21.12914006 -39.52406291 -77.89483509 -0.139003749 -0.007790086273 -0.4471874498 205 64 50
-59.77307225 -36.54512453 -53.13313937 -0.3927865733 -0.005354063424 -0.3195443286 222 64 33
-34.58562468 -32.08214252 -72.63578524 -0.2163666086 0.001773352423 -0.4410365535 215 64 40
-51.21692108 -31.64649419 -61.73834913 -0.337491902 0.001206188381 -0.3795528979 222 64 33
-31.7831486 -30.38597129 -74.09757186 -0.2039450851 0.004165552561 -0.4586090406 220 64 35
-60.69872211 -29.48173206 -52.16316399 -0.3740093684 -0.005126790141 -0.3210412232 216 64 39
-46.0260211 -28.01051618 -65.68520715 -0.2807867579 -0.0007446836914 -0.3985727586 213 64 42
-46.0260211 -28.01051618 -65.68520715 -0.2807867579 -0.0007446836914 -0.3985727586 213 64 42
-65.17726786 -27.33199461 -46.27029203 -0.4011797446 -0.002887482139 -0.2850829337 215 64 40
-62.80450196 -25.16470316 -49.49257175 -0.3914573207 -0.001854568351 -0.3088494074 218 64 37
-61.95538064 -19.94773093 -50.56602893 -0.3942580804 -0.001096505332 -0.3051288526 218 64 37
-50.27852942 -16.46570097 -62.62126297 -0.3201527944 0.008551596264 -0.3844901036 219 64 36
-40.7350735 -12.21141399 -69.46869861 -0.2547562938 -0.001099706536 -0.4183518473 214 64 41
-33.26927979 -8.479931674 -73.42033436 -0.2229001667 0.002428990221 -0.4632280297 225 64 30
-45.77758455 -4.508898331 -66.102727 -0.2987324344 0.005172588782 -0.4070284517 221 64 34
-37.14892412 -3.369093152 -71.4357224 -0.2452896924 0.003851026238 -0.4590938492 228 64 27
-55.67603072 7.903667273 -57.59588269 -0.357217375 -0.002196533338 -0.3552092402 221 64 34
-30.54200516 12.29502297 -74.73052849 -0.1911523142 -0.002410256849 -0.4702475817 222 64 33
-33.67255921 16.19458205 -73.29774869 -0.2237097909 -0.009601861731 -0.4510531365 220 64 35
-72.19117728 17.52356159 -33.69142671 -0.4469175986 0.003022535392 -0.1963124114 214 64 41
-72.19117728 17.52356159 -33.69142671 -0.4469175986 0.003022535392 -0.1963124114 214 64 41
-34.01689803 19.99612007 -73.15014133 -0.214411256 -0.005821146618 -0.4517368483 219 64 36
-30.39533557 22.70584264 -74.75330431 -0.1840432285 -0.006928394824 -0.4694042139 221 64 34
-41.19777608 26.42248423 -69.08358513 -0.2599947016 0.00722579742 -0.4338804025 221 64 34
-38.34343502 28.93994977 -70.72615949 -0.2459651453 0.001414628809 -0.4503119174 225 64 30
-52.87166513 31.14426548 -60.30144873 -0.3331975243 0.002923874814 -0.3538862038 213 64 42
-34.36952069 32.08139859 -72.93074961 -0.2260978388 -0.004330895174 -0.4512202052 221 64 34
-57.55139679 34.34090425 -55.63531899 -0.3561645811 -0.003449204926 -0.3550465739 220 64 35
-33.09740444 35.90240769 -73.48340128 -0.2043587631 0.0005629000955 -0.4592502476 220 64 35
-17.82652251 42.00601117 -78.9404817 -0.1111401701 0.004591640961 -0.4830636197 217 64 38
-34.95691554 44.69044923 -72.67131605 -0.2070133172 0.005333246546 -0.4431363039 214 64 41
-47.06850023 45.7488628 -65.11725983 -0.2864162062 0.002203698082 -0.3926676133 213 64 42
-29.10741685 47.70070565 -75.22127959 -0.2028320254 -0.0001095160673 -0.4709676207 224 64 31
-47.63396505 48.09881396 -64.68832858 -0.302135241 -0.0001885190805 -0.394265698 217 64 38
-50.58126447 56.35863479 -62.17004478 -0.3261447796 -0.01329094192 -0.3827803296 220 64 35
-32.90717596 56.09505721 -73.69852017 -0.2087366219 0.00574438811 -0.4300086016 209 64 46
-43.25767528 56.74249227 -67.96263288 -0.2787001504 0.01038622253 -0.4353434835 226 64 29
-40.59189402 -57.94478553 -69.38935027 -0.2526376297 0.002436038299 -0.435722358 221 64 34
-63.98977312 -58.1896224 -47.1731325 -0.4398549891 0.001567523357 -0.344435058 245 64 10
-36.54979688 -54.64091808 -71.59470804 -0.237821845 0.005643531507 -0.4311160506 216 64 39
-48.61083364 -51.40320445 -63.85286632 -0.3049045295 0.003272950085 -0.3816586846 214 64 41
-30.9718255 -51.04105086 -74.33655021 -0.1820820657 -0.002870683393 -0.443314698 210 64 45
-53.14071656 -50.696973 -60.09330667 -0.3337390926 -0.002710959099 -0.3470049927 211 64 44
-28.58398526 -49.64109222 -75.33761447 -0.1624320081 0.01266904885 -0.4627687507 215 64 40
-49.18180443 -48.87345866 -63.43137723 -0.3092801101 0.005040890432 -0.3877675202 217 64 38
-28.73681225 -40.5293006 -75.29220773 -0.1780411955 -0.006355256096 -0.4640278688 218 64 37
-36.67929354 -38.49584078 -71.31101362 -0.2391821996 -0.004152179264 -0.4343297974 217 64 38
-48.04796131 -35.46336108 -64.37465181 -0.3109709244 0.001916167721 -0.3985648551 221 64 34
-25.45723041 -30.36757299 -76.45825499 -0.1583554737 -0.001202235268 -0.4618430884 214 64 41
-52.14382857 -26.88774635 -61.15686819 -0.3362050808 -0.002446476807 -0.3725977898 220 64 35
-50.94380768 -22.62686384 -62.05394368 -0.3167805148 -0.008558053534 -0.3864949332 219 64 36
-45.73855897 -21.08689215 -66.05135537 -0.2806900673 -0.0005577233848 -0.3989770638 214 64 41
-11.28575692 -13.45526878 -80.23341713 -0.06676566139 0.006296467806 -0.4906993792 217 64 38
-21.13213364 -13.29528121 -78.00552905 -0.1197923329 -0.001485056296 -0.4646651668 210 64 45
-43.00974191 -7.5284117 -67.87450295 -0.2764440709 0.0034018486 -0.4214831364 221 64 34
-35.19591832 -7.190866741 -72.43773667 -0.2303559932 0.004445383865 -0.4603767949 225 64 30
-39.81117989 -3.574165874 -69.94240347 -0.274723792 0.001969747449 -0.4606988693 235 64 20
-35.20612972 -2.797464135 -72.45616839 -0.2362832931 0.00285359668 -0.4610382817 227 64 28
-45.88372811 -2.260718905 -65.98048831 -0.3002282105 0.006100277211 -0.4252041902 228 64 27
-62.34977782 0.5291907065 -50.00594168 -0.3947326829 -0.005621926346 -0.2972700016 216 64 39
-37.99261415 0.48854877 -70.99691431 -0.23621671 -0.001987313372 -0.4227042535 212 64 43
-39.16549419 2.908199829 -70.34549598 -0.2418362097 -0.002965078669 -0.4250175299 214 64 41
-42.1818243 4.98043676 -68.56997725 -0.2677326145 -0.00102048215 -0.4206502634 218 64 37
-36.30615886 7.300450204 -71.89563987 -0.2488449942 0.00109882381 -0.4647685508 231 64 24
-38.64175477 8.423638888 -70.53504431 -0.2495657975 0.003967319687 -0.4425121419 222 64 33
-48.3978728 9.264053779 -64.04521901 -0.3093156981 -0.004288712393 -0.4025463963 222 64 33
-32.94671401 10.63189865 -73.66986077 -0.2127839004 -7.777579997e-05 -0.4596316755 222 64 33
-36.60212095 10.87825763 -71.67928176 -0.2465628046 0.0004896164719 -0.4501899451 225 64 30
-47.21943661 11.48883718 -65.00222813 -0.3053251639 0.001308963624 -0.41728556 226 64 29
-28.65996887 13.88022521 -75.48018529 -0.1924551881 -0.004875498965 -0.482156335 227 64 28
-41.77286003 14.02403776 -68.7110442 -0.2639112394 -0.0008772961863 -0.4225246773 218 64 37
-48.31552989 15.88266848 -64.08684062 -0.3085745556 0.002534661193 -0.3909382617 218 64 37
-51.90714449 16.98625816 -61.10269372 -0.3305971461 0.0005060662617 -0.3738395252 218 64 37
-28.56961313 18.0275127 -75.45704735 -0.1834511012 -0.007564357354 -0.478365451 224 64 31
-48.03103662 18.97357829 -64.6457875 -0.2919711124 -0.0008129393349 -0.3820125619 210 64 45
-30.65226542 20.44795797 -74.59467016 -0.192143552 -0.004104113044 -0.4709296104 223 64 32
-42.18759575 21.91651078 -68.47895838 -0.2606059178 0.005988965481 -0.4361898049 222 64 33
-41.70451892 24.48765293 -68.71679469 -0.266230112 0.00685818134 -0.4491845992 229 64 26
-26.22358603 26.46306895 -76.21872126 -0.167394386 -0.01337211224 -0.4591130535 214 64 41
-42.08523412 28.19870118 -68.52106697 -0.2656775855 0.002662285198 -0.4320492669 222 64 33
-59.42571016 29.72471961 -53.54957798 -0.3737803496 -0.0007615918043 -0.3139431696 214 64 41
-48.41761054 29.47475482 -64.07260271 -0.310904612 0.003175161263 -0.3810767888 215 64 40
-20.48632949 35.11646708 -78.13252749 -0.1355378871 -0.006863860043 -0.479645207 218 64 37
-48.59129085 36.27139371 -63.90275614 -0.3129254973 -0.0003261758608 -0.385803656 217 64 38
-46.89884432 36.89059962 -65.36623313 -0.2980228165 0.001565955867 -0.393618323 216 64 39
-50.97764401 40.95289438 -62.3324465 -0.2999280374 -0.001433025924 -0.362620227 206 64 49
-54.38898142 46.68897809 -59.13288542 -0.3428476915 -0.0005310583721 -0.3610183092 218 64 37
-43.54787129 48.68483779 -67.53395026 -0.269685251 -0.007808869644 -0.4161402715 217 64 38
-27.80038402 51.8121323 -75.79212085 -0.1740014211 -0.01244240602 -0.4604683099 216 64 39
-34.12654284 53.60901255 -73.01110791 -0.2281590303 0.005919720681 -0.4403040254 217 64 38
-57.09675117 -54.51220168 -55.76622512 -0.3694615584 -0.004189849662 -0.3479528462 222 64 33
-37.29592166 -51.63984722 -71.39447808 -0.2312604234 -0.003109960659 -0.4242589914 212 64 43
-35.1427807 -49.00345404 -72.39419709 -0.2246790359 -0.013435766 -0.4262449592 211 64 44
-45.19828437 -46.66540066 -66.3412826 -0.2881056119 -0.00340899205 -0.3953016479 214 64 41
-32.16041965 -45.61451467 -73.83942491 -0.2050846613 0.001833514831 -0.4604816544 221 64 34
-48.66781781 -44.42316638 -63.65367481 -0.3058654041 0.009083663035 -0.3969094873 219 64 36
-47.71101013 -36.38310201 -64.46554856 -0.303341122 -0.004522374645 -0.3891918483 216 64 39
-41.46220473 -27.32195818 -68.81379532 -0.2684311848 -0.002003904582 -0.418749944 218 64 37
-10.76889268 -24.52869056 -80.41825792 -0.06543346549 -0.003450153051 -0.4865174132 215 64 40
-53.13169587 -21.27157339 -59.9993616 -0.340001074 -0.003892377073 -0.3733635386 221 64 34
-24.18663182 -10.35063471 -76.9792181 -0.1550241065 -0.003357266643 -0.4836766885 222 64 33
-31.80903189 4.953309148 -74.13801131 -0.1931931275 -0.0009736291669 -0.4582008549 218 64 37
-35.16785968 13.76206968 -72.50839481 -0.2268665523 -0.005350677884 -0.4303226049 213 64 42
-43.42651909 21.48555778 -67.71581277 -0.2691488602 0.005543159711 -0.4271179744 221 64 34
-39.16553148 22.74899153 -70.29930893 -0.2554139606 0.008079506047 -0.4524014328 227 64 28
-39.16553148 22.74899153 -70.29930893 -0.2554139606 0.008079506047 -0.4524014328 227 64 28
-46.72409238 24.04307825 -65.30435657 -0.293311306 0.004564502804 -0.4167736355 223 64 32
-62.11427774 31.61298723 -50.5060682 -0.389386233 0.005020523526 -0.3051639692 217 64 38
-50.6535241 33.21522584 -62.28669966 -0.3100380314 -0.007424510074 -0.3712434479 212 64 43
-36.52191836 40.2332014 -71.74405736 -0.2096924018 -0.004377968747 -0.4098446368 202 64 53
-22.30342158 51.37020311 -77.61976068 -0.141620499 0.0001819627316 -0.4797589009 219 64 36
-43.66136487 52.97653904 -67.55110592 -0.2709350326 0.003409664435 -0.4080707222 214 64 41
-41.77111463 54.15985709 -68.82757353 -0.2669860186 0.004719968496 -0.4257163518 220 64 35
-46.59493941 54.33413755 -65.5044978 -0.2836435515 -0.009219926064 -0.4051389882 217 64 38
-51.71471498 -47.93448161 -61.32469498 -0.3340022326 0.006802747764 -0.3764196506 220 64 35
-30.54226668 -40.5200121 -74.5673979 -0.1994242412 -0.004031676705 -0.4611036863 220 64 35
-30.54226668 -40.5200121 -74.5673979 -0.1994242412 -0.004031676705 -0.4611036863 220 64 35
-40.79616086 -29.84104357 -69.40569511 -0.2597847659 -0.001762907686 -0.4251833376 218 64 37
-40.79616086 -29.84104357 -69.40569511 -0.2597847659 -0.001762907686 -0.4251833376 218 64 37
-35.52987602 -28.14613088 -72.3091598 -0.224985816 0.0004877977618 -0.4438773142 218 64 37
-33.46298666 -26.27524693 -73.33627378 -0.2280151962 -0.001277320068 -0.4643339568 226 64 29
-49.87689108 -12.66686193 -62.73077879 -0.314135883 0.00203021938 -0.376457804 215 64 40
-35.74711113 -10.59277102 -72.0814608 -0.2366373325 0.005052750983 -0.4584212808 226 64 29
-52.80577752 -3.136519856 -60.34403195 -0.3315260807 -0.002375952086 -0.3669851734 217 64 38
-48.28699564 -2.714299415 -64.32800551 -0.3088487824 0.002810532921 -0.4144710755 226 64 29
-26.22689851 -1.206437721 -76.4295095 -0.1627970758 0.0006205273949 -0.474838022 220 64 35
-37.30370307 25.44970764 -71.34460609 -0.2475729704 0.005149553457 -0.4621282965 230 64 25
-40.85296226 40.09276215 -69.30963115 -0.2543066452 -0.003710148814 -0.4211541535 215 64 40
-20.06450902 44.14700701 -78.1413698 -0.1239154138 0.01101719546 -0.4807638553 217 64 38
-46.15912693 49.81433117 -65.95892187 -0.2927893634 -0.006376577587 -0.4094456402 220 64 35
-60.73780509 -43.25785692 -52.00277434 -0.3775480536 -0.008229729954 -0.3141196396 215 64 40
-60.73780509 -43.25785692 -52.00277434 -0.3775480536 -0.008229729954 -0.3141196396 215 64 40
-44.06525145 6.036294167 -67.32633141 -0.286783773 -0.002920371177 -0.4176436371 222 64 33
-37.21091904 37.82064555 -71.47218879 -0.2218016529 -0.003631118203 -0.4191442388 208 64 47
-43.79641651 44.9900745 -67.38907497 -0.2679522298 -0.005716891882 -0.4210176182 218 64 37
-33.53053358 14.10779846 -72.96464442 -0.2224375819 -0.009738289785 -0.444355983 218 64 37
-36.62445652 -39.9027353 -71.62769668 -0.2394130875 -0.009043080298 -0.4423549647 220 64 35
-33.07078078 -28.39000982 -73.41179982 -0.2240998468 0.001682760314 -0.4670679384 227 64 28
-41.28228317 -25.93055374 -68.97889296 -0.2673390073 -0.003307593561 -0.4194591888 218 64 37
3.606332743 -24.56489884 -80.96102804 0.01494080826 0.007276409192 -0.489673958 214 64 41
-32.10420511 -16.62116398 -73.86363371 -0.2133753998 -0.003338906858 -0.4553176 220 64 35
-48.48344913 -6.67258519 -64.03356723 -0.306259242 0.003447651394 -0.3970221308 220 64 35
-4.260120491 -0.4629573114 -80.82755701 -0.02585060531 -0.0003959945844 -0.487650349 214 64 41
-8.290109576 42.36823308 -80.41530965 -0.04974228318 -0.004362486029 -0.4887966825 215 64 40
-36.58659968 56.10249432 -71.68494711 -0.2311747016 0.00497017908 -0.4340435115 215 64 40
-40.54825625 -56.80192699 -69.38304894 -0.2599168358 0.01049750431 -0.4454877559 226 64 29
-9.339736694 -53.6176539 -80.36018243 -0.07588737237 -0.001479821662 -0.4872081642 216 64 39
-25.29804569 -52.07167166 -76.57667454 -0.1527763049 -0.00655932991 -0.4781041165 220 64 35
-2.31668678 -45.58495825 -80.85726476 -0.02176889556 -6.050988179e-05 -0.4781980475 210 64 45
0.8321203291 -40.76247469 -80.8391201 0.007033981896 0.0004332365394 -0.504475505 221 64 34
15.28579201 -37.20552172 -79.58513075 0.08444795326 -0.003111908337 -0.4938764867 219 64 36
17.1413244 -35.70216855 -79.1773275 0.09616077568 0.003123963212 -0.4915283151 219 64 36
-11.63098282 -28.4015473 -80.00836222 -0.07940982619 0.001172178577 -0.4673664015 208 64 47
0.05816775487 -26.68328836 -80.96662468 -0.005204314198 0.0121400422 -0.5019062616 220 64 35
-38.8294697 -25.9010456 -70.54692915 -0.2476265586 -0.0004582847838 -0.4285637135 217 64 38
-8.290164118 -22.27280436 -80.51829741 -0.04863835747 -0.005820608998 -0.4902274177 216 64 39
2.437163893 -20.2664095 -80.94444956 0.01386096884 -0.002057119551 -0.483878427 212 64 43
6.491495324 -17.08665364 -80.70257466 0.03396430523 0.003729525266 -0.4920754324 216 64 39
-27.58948439 -17.27717002 -75.81988662 -0.1723605644 0.001943145537 -0.4618645533 216 64 39
-6.659816902 -10.97266602 -80.69921729 -0.04065847523 -0.004265853534 -0.5040868903 221 64 34
3.678486686 -10.71720224 -80.90728017 0.01549145463 0.001046030521 -0.4957065673 217 64 38
10.04819567 -8.852908865 -80.41183682 0.06841253083 0.003631559355 -0.4927691469 218 64 37
-1.259612147 -4.6440806 -80.92648084 -0.008524035853 -0.001194182312 -0.476697389 209 64 46
-7.245657669 0.02695164011 -80.59240929 -0.04737176047 0.0008302741939 -0.4896641355 215 64 40
0.6030388107 5.727226734 -81.06310066 -0.005028587359 -0.001825641663 -0.4932366571 216 64 39
0.6030388107 5.727226734 -81.06310066 -0.005028587359 -0.001825641663 -0.4932366571 216 64 39
1.459342166 6.371292897 -81.06510749 -0.001024974308 -0.00161744892 -0.4953803863 217 64 38
-39.38848119 8.948011152 -70.18387097 -0.2572432698 0.001738763741 -0.4398116161 223 64 32
7.118190159 11.34475272 -80.75775349 0.04887322165 0.001330443619 -0.4963730296 218 64 37
2.134169155 11.86494589 -81.01985999 0.003827717712 -0.007953649884 -0.5041476631 221 64 34
2.119594533 14.786884 -81.0261958 0.009732272138 -0.003713755887 -0.5232818248 229 64 26
2.119594533 14.786884 -81.0261958 0.009732272138 -0.003713755887 -0.5232818248 229 64 26
-34.23987632 18.81853174 -72.92988752 -0.2135075076 -0.004837803547 -0.4454711062 216 64 39
-11.58077924 18.88158067 -80.06335539 -0.07257770205 -0.008313467944 -0.4935186081 218 64 37
-22.87456603 28.60214883 -77.42527833 -0.1461628445 -0.006984474348 -0.4677978249 215 64 40
-11.06175487 31.62365639 -80.22814874 -0.06593731336 -0.002008970042 -0.5008859654 221 64 34
-11.64506924 33.11850314 -80.03097792 -0.06384677339 -0.004609325624 -0.4997004306 221 64 34
4.195657077 37.14618996 -80.9640638 0.01302416596 0.01004687015 -0.4872824926 213 64 42
-6.067096315 39.57761025 -80.71407356 -0.04878809691 -0.009901769157 -0.4930162333 217 64 38
9.888627142 40.56593685 -80.50067662 0.0761665961 0.000600609652 -0.4785522592 212 64 43
-49.650266 46.69986827 -63.11975478 -0.3162077644 0.009882976887 -0.3886490037 219 64 36
-1.809863457 50.70295512 -80.94135672 -0.01474938637 0.006924834709 -0.5181724464 227 64 28
11.0710808 52.64892507 -80.38095111 0.06672690879 -0.00263017479 -0.5087412582 225 64 30
-29.3285281 54.14294248 -75.12039192 -0.1939528058 -0.009250253103 -0.4546074552 216 64 39
-42.43657122 55.90167083 -68.38736851 -0.2699217346 0.009908682459 -0.4332213268 224 64 31
-28.61367815 55.16306957 -75.46527283 -0.179898344 0.001960841998 -0.4577778929 215 64 40
-4.318627164 58.7262805 -80.80940021 -0.02384892483 0.01550179137 -0.4860533462 213 64 42
-7.33136408 -54.51166429 -80.5765494 -0.0568486213 -0.02036021154 -0.5078247331 224 64 31
-31.64457717 -53.01748439 -74.15656048 -0.1894194208 -0.008540914557 -0.4351340772 208 64 47
4.699772151 -50.08644828 -80.8365137 0.03173162211 -0.003786479088 -0.482706914 212 64 43
-8.722632518 -49.55832918 -80.35152175 -0.06287035676 0.005356789109 -0.505742202 223 64 32
-39.39964412 -48.06015529 -70.085319 -0.250723152 -0.009329499298 -0.4409193768 222 64 33
-5.380775037 -44.10063518 -80.67719077 -0.04459933873 -0.003443327598 -0.4935944994 217 64 38
-4.447319376 -43.63142045 -80.73198937 -0.03738315339 -0.004779324991 -0.4882366337 214 64 41
-16.47925797 -41.1219437 -79.01245966 -0.09922711348 -0.004289589458 -0.4824658205 216 64 39
-6.525002239 -40.21575839 -80.69457845 -0.0515471011 -0.006836930646 -0.4943934102 218 64 37
-0.8711790142 -36.21302034 -80.95723533 0.0006031754464 0.001922620647 -0.5005663929 219 64 36
10.37352266 -35.67917117 -80.43561974 0.0625246563 0.008058510796 -0.4937397044 218 64 37
-13.29248289 -35.009551 -79.70062444 -0.0886165988 0.008488889266 -0.5047412066 224 64 31
-21.23897271 -30.17535831 -77.96411153 -0.1373124469 0.002629911327 -0.4806331367 219 64 36
6.255360086 -29.59792894 -80.77908752 0.03949727546 0.004134448709 -0.4956094866 218 64 37
-29.00399143 -29.4014094 -75.27446592 -0.1835286957 -0.002330041082 -0.4547816188 215 64 40
-10.93491013 -28.02989 -80.18395568 -0.07203998335 -0.002493806785 -0.4664527028 207 64 48
9.709437531 -26.57635924 -80.39349452 0.05999321306 -0.007272338539 -0.479543725 212 64 43
13.46634564 -26.4424213 -79.92410288 0.0807086255 -0.01094827678 -0.4903673943 218 64 37
-26.99594479 -23.10512735 -76.01232972 -0.1580461499 0.001815432062 -0.4621874918 214 64 41
-1.89175937 -21.84805555 -80.90900802 -0.01456739336 0.00387160898 -0.4929037017 216 64 39
-33.96808232 -21.73192592 -73.01730297 -0.2103707018 -0.01017410168 -0.4416250031 214 64 41
-1.91038495 -17.2628062 -80.94210784 -0.01962710797 -0.001643294474 -0.4877048528 214 64 41
5.692924475 -16.86018269 -80.91868792 0.02722716937 0.004729780074 -0.494968535 217 64 38
-4.363822551 -14.96352892 -81.04565782 -0.0216466018 0.00164489999 -0.5110571189 224 64 31
-8.241973112 -13.71653311 -80.58012477 -0.04779951308 -0.002639461214 -0.5087804179 224 64 31
-27.65385998 -13.12635419 -75.87779643 -0.1729037333 0.001363603276 -0.4584830189 215 64 40
5.462635821 -11.86032578 -80.81446379 0.02571635999 0.0003636501371 -0.4991415956 219 64 36
-8.13766278 -11.57476669 -80.51669386 -0.04828872497 -0.001821144613 -0.5068860229 223 64 32
-10.36593654 -8.165859557 -80.20292513 -0.06346415461 -0.00340838971 -0.5070337208 224 64 31
-13.50921198 -3.816511993 -79.72235716 -0.08247567054 -0.00372815654 -0.487354513 216 64 39
-42.13948694 -2.163836837 -68.53079728 -0.2797289661 0.004608736542 -0.4253107205 223 64 32
5.216040346 -1.638675678 -80.8820273 0.0286775452 0.003095448064 -0.5078329938 223 64 32
6.004350381 -0.4384957321 -80.77835764 0.03415887469 0.005091037054 -0.4959894021 218 64 37
-35.02790942 3.380989042 -72.53252295 -0.225432312 2.179078623e-05 -0.4523582162 221 64 34
-9.169061426 5.094514636 -80.31220439 -0.0718782865 -0.0006739219802 -0.4889310537 216 64 39
11.97672898 5.942731034 -80.16964573 0.07180443719 0.003405527349 -0.4851065941 215 64 40
-38.54231586 6.959737959 -70.67267768 -0.2519794033 0.003409179631 -0.4454543468 224 64 31
-4.542376054 7.298829464 -81.04171211 -0.03195807119 -0.001697777755 -0.485780217 213 64 42
-16.57322721 8.63105591 -79.2251257 -0.1034975142 -0.0003449524902 -0.4763036773 213 64 42
-25.73817778 10.13657074 -76.54160582 -0.1679442092 -0.001141699159 -0.4728211346 220 64 35
-45.47031073 11.13052875 -66.38983825 -0.2940384034 0.004085311172 -0.41512783 223 64 32
10.71259001 11.4403234 -80.37553137 0.0681497097 -0.0004578603134 -0.4866045825 215 64 40
-19.17885261 12.87878236 -78.42848689 -0.1092809987 -0.004113946258 -0.4332456353 196 64 59
15.12477189 14.0730407 -79.68313882 0.08455695912 0.0005005134106 -0.4825010906 214 64 41
9.611559389 18.72047166 -80.39874935 0.05279646759 0.001718012508 -0.4892579089 215 64 40
-32.31793693 21.01369 -73.77686847 -0.2062146859 -0.006448424115 -0.4663988757 223 64 32
-1.24327416 20.78877602 -81.02111099 -0.0009505820454 -0.001353075497 -0.505321596 221 64 34
13.37632725 24.78915841 -79.95862427 0.07349048381 0.0003971993549 -0.4897472693 217 64 38
-4.130175893 25.94729684 -80.95852673 -0.0377626229 -0.003876223975 -0.4911237477 216 64 39
13.4235996 26.00446923 -79.96378487 0.07662117242 -0.0009287346023 -0.4908473496 217 64 38
2.284855002 27.72879725 -80.82354252 0.01521144203 -0.002041509477 -0.5005066742 219 64 36
-44.13780031 29.22428632 -67.12944868 -0.2820422554 0.003099325241 -0.4150870575 220 64 35
-6.520352057 30.29316312 -80.5923891 -0.04522729571 7.837541132e-05 -0.4978729097 219 64 36
