ply
format ascii 1.0
element vertex 536
property double x
property double y
property double z
property double ux
property double uy
property double uz
property uchar red
property uchar green
property uchar blue
end_header
-26.99257734 -49.70310196 79.00409402 -0.1964983705 -0.01558854081 0.5360425445 230 64 25
-68.65044126 -46.83386328 46.78214812 -0.4673514412 -0.01040687088 0.3245219527 229 64 26
-74.26283671 -40.50260093 36.74930421 -0.4991508705 -0.009483157571 0.2518473163 225 64 30
-72.82783212 -37.96353411 39.29212314 -0.4888714401 -0.01185922407 0.2651182493 224 64 31
-72.82783212 -37.96353411 39.29212314 -0.4888714401 -0.01185922407 0.2651182493 224 64 31
-39.002863 -32.4160451 73.14098984 -0.2572817399 -0.002092692614 0.4813061857 220 64 35
-39.002863 -32.4160451 73.14098984 -0.2572817399 -0.002092692614 0.4813061857 220 64 35
-60.09995298 -31.63209689 56.57431854 -0.3913809456 -0.008668950614 0.3860446252 221 64 34
-48.5739295 -31.47584327 66.78581461 -0.326955917 -0.0118636316 0.4566164786 226 64 29
-43.51001383 -24.74704323 70.19135039 -0.3210729498 -0.007427977195 0.502479977 240 64 15
-34.78013332 -21.87544002 74.89293442 -0.2516799234 0.002222585157 0.5145444185 231 64 24
-76.10722894 -1.165916229 31.15144159 -0.5173325781 -0.0003160175076 0.2138199643 225 64 30
-76.10722894 -1.165916229 31.15144159 -0.5173325781 -0.0003160175076 0.2138199643 225 64 30
-70.18380399 0.7366212776 42.66825723 -0.4849849934 0.002395488411 0.292379044 228 64 27
-70.18380399 0.7366212776 42.66825723 -0.4849849934 0.002395488411 0.292379044 228 64 27
-33.24958287 1.359514005 75.50477753 -0.2257721502 -0.002495892906 0.5002933441 221 64 34
-37.3860809 2.649235752 73.47422007 -0.2499579138 0.00174481447 0.4917560955 222 64 33
-67.79647308 6.816319179 46.63402226 -0.4786717511 0.004035135683 0.3117970553 230 64 25
-40.40185827 10.34305419 71.92618143 -0.2709706098 0.0008995579049 0.4631779927 216 64 39
-55.68632648 15.45634799 60.59147825 -0.3708206054 5.707521761e-05 0.3995445487 220 64 35
-32.86672809 28.04314822 75.86311042 -0.2348662569 0.009210992909 0.5239348203 231 64 24
-26.4091614 29.73855764 78.41863739 -0.1945834853 0.005676089819 0.532237643 228 64 27
-65.60595878 32.87326906 50.17942765 -0.4387681674 0.01471390992 0.3394814021 224 64 31
-33.76311833 40.60958727 75.7473444 -0.2339503381 0.009983123423 0.5167212461 228 64 27
-33.46812561 45.51506566 76.18364718 -0.2380680221 0.0242861065 0.525650134 233 64 22
-69.24527184 -61.52265323 46.77781468 -0.4918390952 -0.02596715707 0.3161895111 236 64 19
-73.03622941 -60.00287732 40.66035562 -0.5012053509 -0.03054766059 0.2692503309 229 64 26
-46.82908255 -59.51315715 69.390988 -0.3251052299 -0.01901215407 0.4722067126 231 64 24
-61.28312507 -58.00142286 56.69071335 -0.4127795869 -0.01264352706 0.3868320526 228 64 27
-49.66422714 -57.36312496 67.25608329 -0.3457829689 -0.02063480451 0.4665549261 234 64 21
-74.4313527 -55.8662989 37.61322425 -0.5249850795 -0.0200727545 0.265945955 237 64 18
-74.27860134 -51.88454533 37.5728438 -0.4846215401 -0.03311057539 0.2518953957 220 64 35
-38.09462921 -53.26559962 74.33087527 -0.2523264113 -0.0099359813 0.4889457333 222 64 33
-67.74945671 -48.15938307 48.046036 -0.4450105333 -0.009927699507 0.3335596078 224 64 31
-38.48362639 -49.36498114 73.9858449 -0.259441817 -0.01585889538 0.4962884048 226 64 29
-37.20640603 -46.44021674 74.51287156 -0.2586218824 -0.02525987426 0.5017438758 228 64 27
-51.68556004 -45.51315531 64.98590105 -0.3520032595 -0.01927353454 0.4554803921 232 64 23
-48.4687634 -45.22166069 67.42473 -0.3255200354 -0.02433063565 0.4463356703 223 64 32
-33.34909208 -43.58980686 76.07441648 -0.2199495696 -0.00997454413 0.5118566456 224 64 31
-68.68006406 -40.98251488 46.09836949 -0.4682648892 -0.01527140523 0.3153688142 227 64 28
-65.83400847 -40.64250118 50.26067241 -0.4574544283 -0.02033758454 0.3619992485 235 64 20
-64.18836864 -37.61367097 52.0589322 -0.435149105 -0.012172711 0.3508833084 225 64 30
-72.77114796 -37.41263927 39.50823058 -0.4883350873 -0.00926121229 0.2657819409 224 64 31
-36.55928033 -37.42428395 74.46797703 -0.2488131578 -0.01586091731 0.4943408884 223 64 32
-36.55928033 -37.42428395 74.46797703 -0.2488131578 -0.01586091731 0.4943408884 223 64 32
-49.89139361 -34.72247034 66.12642425 -0.3285930395 -0.005205290095 0.4437570471 222 64 33
-36.02702828 -33.32763179 74.6246883 -0.2386069674 -0.008316770404 0.4841862885 217 64 38
-76.40612429 -29.99219336 31.24487409 -0.526889147 -0.01101539002 0.2058416284 228 64 27
-45.27790973 -29.88008102 69.09899754 -0.3202564464 -0.00416598369 0.4780992292 232 64 23
-73.46261255 -27.60086326 37.5777499 -0.4859213247 -0.008838361797 0.2429606819 219 64 36
-52.8342341 -27.55268114 63.49943728 -0.3615621313 0.0002129095121 0.4240438408 224 64 31
-33.58593272 -26.54092027 75.68152319 -0.222269791 -0.01163268834 0.5020171965 221 64 34
-44.03208025 -26.20037352 69.9229298 -0.3228084586 -0.003292529252 0.4931643693 237 64 18
-37.44869273 -24.31329173 73.70000071 -0.2676943906 0.00356842124 0.5093213429 232 64 23
-48.45077855 -21.17403069 66.72101785 -0.3429068355 -0.01200642874 0.4643117735 233 64 22
-55.04487881 -8.885208213 61.1761235 -0.3822299868 -0.003383019288 0.4153673477 227 64 28
-69.86707138 -8.762436655 43.38068894 -0.4843876097 0.002450829292 0.2893970734 227 64 28
-71.59629134 -7.672559937 40.60547491 -0.4790961888 0.0005821847307 0.2690527031 221 64 34
-36.77096787 -7.588557364 73.79198915 -0.2629618087 -0.004403121579 0.4986324857 227 64 28
-37.51871507 -4.781814744 73.42006811 -0.2519846122 -0.007587567247 0.4871699067 221 64 34
-74.16918217 -0.7011591441 35.45448822 -0.4901869621 -0.002110511455 0.2261021153 217 64 38
-34.70358816 -0.3914800706 74.93135656 -0.2304943501 -0.002239844569 0.4976123923 221 64 34
-64.12254339 0.1874958379 51.47495691 -0.4413958128 0.001479507956 0.3457708707 226 64 29
-43.45986006 2.34655615 69.98558154 -0.2882361794 0.0005898297821 0.4608133428 219 64 36
-35.99679242 7.066046706 74.33756103 -0.2356656727 9.168566849e-05 0.491639431 220 64 35
-71.56462116 7.307893097 40.70286642 -0.4686481296 0.004884694723 0.2715821721 218 64 37
-71.56462116 7.307893097 40.70286642 -0.4686481296 0.004884694723 0.2715821721 218 64 37
-42.69473075 8.938496714 70.3030205 -0.2986918475 0.001095352126 0.4790635718 227 64 28
-47.41959184 10.79151877 67.2828817 -0.3287585791 0.000792810741 0.4699572184 231 64 24
-59.34904025 12.54737001 56.71251188 -0.4129425446 0.007987356657 0.3709365968 224 64 31
-50.75755307 14.14616831 64.92566992 -0.3517394989 0.00661035053 0.43810894 226 64 29
-54.98731697 15.4012948 61.33460711 -0.3677522915 0.001934183127 0.3982838288 218 64 37
-38.77554543 15.88736278 72.72204091 -0.2616793877 0.004576090314 0.4958878747 226 64 29
-69.97665763 16.60261249 43.31724603 -0.491699687 1.644093901e-07 0.2960440227 231 64 24
-33.60070266 19.41686478 75.42358443 -0.2163288295 0.008788636254 0.5068717593 222 64 33
-33.63999172 20.1734086 75.46925485 -0.2150570369 0.009883213809 0.5033433336 220 64 35
-49.08948157 22.70778091 66.21717711 -0.3267464855 0.01928365238 0.4529424123 225 64 30
-49.08948157 22.70778091 66.21717711 -0.3267464855 0.01928365238 0.4529424123 225 64 30
-26.16965261 24.82535852 78.36204934 -0.1744103416 0.00664809297 0.5318347929 225 64 30
-32.55354747 25.12914239 75.82476003 -0.2178844193 0.009997272665 0.5180645302 226 64 29
-61.51246938 24.33745739 54.92747795 -0.4058959303 0.005730390924 0.3626530864 219 64 36
-30.48957527 26.16521779 76.83610919 -0.2084286413 0.006964419711 0.5244843654 227 64 28
-61.44788946 25.26320712 55.01048438 -0.3993335228 0.006752766899 0.360935142 217 64 38
-47.70017357 26.8018525 67.3827669 -0.3059259806 0.01605052245 0.4465689762 218 64 37
-33.26356639 28.08970852 75.58039939 -0.2379565641 0.00934262713 0.5228158721 231 64 24
-48.96993512 27.79844352 66.51713756 -0.3182371768 0.01424493788 0.4308957712 216 64 39
-49.78332635 28.09315436 66.0197329 -0.3307522972 0.01280911716 0.4271095954 218 64 37
-33.79914335 33.78005674 75.63536723 -0.216249418 0.01477551617 0.5125647779 224 64 31
-36.31032557 34.24002514 74.42851623 -0.2421188697 0.02388696691 0.5123200688 228 64 27
-65.44474447 36.15058564 50.57194881 -0.4423701846 0.008282761208 0.3436542246 226 64 29
-42.17620558 37.5856758 71.36406085 -0.2912892062 0.008886582219 0.4910838536 230 64 25
-49.35855319 37.83530239 66.44024848 -0.3279618019 0.01487375708 0.4440309927 222 64 33
-67.77533204 39.49175606 47.61797581 -0.4613995044 0.009862008251 0.3267218636 228 64 27
-69.96261057 40.37189567 44.28743907 -0.4671210043 0.01173553062 0.3029178834 224 64 31
-74.40330979 41.42610942 36.46076941 -0.5122189412 0.01887445337 0.2531373933 230 64 25
-72.60956652 44.15192667 40.23315355 -0.4825071044 0.009049890421 0.2689404971 223 64 32
-72.60956652 44.15192667 40.23315355 -0.4825071044 0.009049890421 0.2689404971 223 64 32
-64.40449772 47.70665838 52.53925395 -0.4465997435 0.0191843919 0.3603942669 231 64 24
-48.90904851 50.40451314 67.30896822 -0.3408507102 0.01732962722 0.4631787327 232 64 23
-50.1748869 53.13179017 66.42925061 -0.3505249388 0.01218351844 0.4697676832 236 64 19
-71.89465277 53.38345612 42.13188548 -0.4696039001 0.01905303428 0.2775245789 220 64 35
-75.02958115 54.74024568 36.2879772 -0.5003726256 0.01440466356 0.2411993477 224 64 31
-37.1023675 57.89377202 74.89372628 -0.2677685185 0.017631033 0.5138926833 233 64 22
-63.32799127 57.10506729 54.18133491 -0.4466855529 0.02791026827 0.3754405959 235 64 20
-44.39322898 -62.78362964 71.32727666 -0.3114335188 -0.01445142054 0.4792127494 230 64 25
-47.14224044 -61.93385468 69.12144159 -0.3703871971 -0.02333232966 0.4897883528 247 64 8
-35.68827813 -61.31397318 75.81492083 -0.2544465663 -0.005594884189 0.5152385366 231 64 24
-50.88773697 -59.74599913 66.25919865 -0.3451895242 -0.03623321255 0.4434716056 227 64 28
-61.99844781 -56.98248536 55.74630202 -0.4192081661 -0.01376007166 0.3789265591 228 64 27
-49.66997935 -57.41378532 67.27984334 -0.3451778686 -0.02131655057 0.462104123 232 64 23
-38.44859714 -57.06555282 74.26658409 -0.2648358778 -0.02074776687 0.5082160167 231 64 24
-45.85033072 -56.08902589 69.73733304 -0.3035376541 -0.009679171859 0.4705928985 226 64 29
-68.90446795 -48.62800392 46.38667032 -0.4609335681 -0.01497264902 0.3236556413 227 64 28
-50.2204637 -46.85733768 66.25478134 -0.3431039823 -0.02342399113 0.4546009152 230 64 25
-46.05377869 -46.60167543 69.36318599 -0.3142350822 -0.02335955884 0.44091297 218 64 37
-40.80280592 -45.38644188 72.47076948 -0.2927061691 -0.02220041361 0.4832181401 228 64 27
-65.56744995 -44.07791321 50.72521241 -0.4345267323 -0.01983654606 0.3412756694 223 64 32
-72.23400744 -42.88413062 40.73212761 -0.4871049264 -0.0157826764 0.2824981935 227 64 28
-40.9239374 -42.52202308 72.38350649 -0.2939170746 -0.01447379797 0.4871644234 229 64 26
-49.28000523 -41.79700713 66.67530938 -0.3273977663 -0.01918277822 0.4451105187 223 64 32
-44.24791424 -36.16322583 70.06422602 -0.3020104562 -0.02098676714 0.471798884 226 64 29
-66.95148242 -34.51288123 48.4525355 -0.4566415414 -0.01232661042 0.3261685453 226 64 29
-51.20056486 -32.75030889 65.04007919 -0.3455634934 -0.007075034404 0.4327991393 223 64 32
-53.85214293 -28.18472358 62.63007629 -0.3684529399 -0.001159160534 0.4202941821 225 64 30
-70.63619751 -27.88228476 42.8640327 -0.4710034711 -0.01080030732 0.286748467 222 64 33
-32.61676509 -27.82109418 76.1890599 -0.2205653021 -0.01481855878 0.5092248776 224 64 31
-52.36867523 -27.01432607 63.741004 -0.3580837911 -0.0004959148319 0.4261394171 224 64 31
-72.76163513 -25.12464546 38.70943861 -0.4942882279 -0.004717570391 0.2557093249 224 64 31
-67.9837218 -25.02249464 46.83845027 -0.4691033217 -0.00753011452 0.3124042005 227 64 28
-43.77167015 -23.96518757 70.01306106 -0.3234417502 -0.008330786825 0.5025769374 241 64 14
-19.97999873 -23.48543236 80.30211713 -0.1516579955 0.00149134081 0.5392082584 226 64 29
-79.58816468 -22.19614987 21.68242019 -0.5276447388 -0.009386984624 0.1444077015 220 64 35
-33.48762004 -22.62189799 75.68715264 -0.2476054272 -0.0005090596661 0.5204039707 232 64 23
-64.99059247 -20.5207846 50.75831786 -0.4218339765 -0.01375516194 0.3322231235 216 64 39
-35.02700155 -20.95455376 74.80205524 -0.2521556247 0.001738270388 0.5083780348 229 64 26
-42.95491063 -17.19034401 70.32071762 -0.2789173323 -0.01323971032 0.4520432316 214 64 41
-28.52787864 -14.29613388 77.48439868 -0.2046143213 -0.003821712923 0.5290709748 228 64 27
-73.98233809 -13.02779549 36.63558154 -0.504983178 -0.001404665841 0.2448535257 226 64 29
-74.92174052 -5.113245329 34.2632551 -0.518613017 0.0009275665635 0.2463075793 231 64 24
-73.46146669 -1.069432614 36.79856634 -0.4866271538 9.554850229e-05 0.237800546 218 64 37
-31.98653856 -0.7388411614 75.93916174 -0.2033663471 -0.0009460522286 0.4886966408 213 64 42
-42.5830396 -0.6329517562 70.55372554 -0.2781712092 0.002184338757 0.4563218233 215 64 40
-70.72343912 -0.7065267555 42.11423185 -0.4825404038 0.0002803163254 0.2806658557 225 64 30
-65.83666059 1.529810263 49.13271862 -0.4680203149 0.002675615099 0.3273778428 230 64 25
-24.36709759 2.786123907 78.92516644 -0.1740402048 -0.002233210076 0.5276080563 224 64 31
-55.25441207 5.199256027 60.87673346 -0.3799234392 0.003214901287 0.408679863 225 64 30
-56.02232572 8.07251059 60.2355048 -0.3817210593 0.0001173721311 0.4003336629 223 64 32
-64.46320547 8.056460059 51.04380277 -0.4184868374 -0.00168421794 0.3390699801 217 64 38
-26.79544741 10.55249117 78.1055399 -0.1887186152 0.003302394263 0.5208488404 223 64 32
-58.40891486 11.1206985 57.8831174 -0.407866793 0.001092065481 0.3953374784 229 64 26
-29.86734853 14.49663792 76.9342854 -0.214822764 0.002298971727 0.5052916564 221 64 34
-69.05236548 14.60994017 44.43660379 -0.4853403542 0.003206750138 0.3047839763 231 64 24
-27.98561938 15.76262928 77.71630049 -0.2055640528 0.005973749132 0.51877353 225 64 30
-76.60048624 14.99433319 30.3245802 -0.5029660569 -0.001406928749 0.1947938434 217 64 38
-70.03068765 15.12692 43.29274552 -0.4883324053 0.001809528189 0.2944725126 230 64 25
-44.73945546 15.9438158 69.18220098 -0.3181780272 0.01149681757 0.4963958027 238 64 17
-63.18716772 15.76143968 52.75979543 -0.4310527416 0.005424167762 0.360694774 226 64 29
-44.64544299 17.35809119 69.35678889 -0.3187893587 0.01294423425 0.4929927759 237 64 18
-24.85100302 19.31804039 78.85587627 -0.1797669776 0.01246498968 0.5462559763 232 64 23
-35.66822198 18.92951357 74.43378596 -0.2293453773 0.006870510243 0.4985369433 221 64 34
-45.50731281 22.84977966 68.88703193 -0.303195675 0.01494657528 0.4758210836 227 64 28
-55.88771168 24.72071503 60.45309315 -0.3767801278 0.006093465267 0.395068296 220 64 35
-70.74234477 25.23863244 42.14369393 -0.4883560803 0.013590263 0.2981766475 231 64 24
-67.94747662 25.55534532 46.73727542 -0.4491785312 0.02619484383 0.2999396193 218 64 37
-67.94747662 25.55534532 46.73727542 -0.4491785312 0.02619484383 0.2999396193 218 64 37
-65.15418897 26.69772573 50.63531477 -0.419739804 0.01761923502 0.3307718533 215 64 40
-49.83283911 27.2218525 65.85867401 -0.3282987679 0.01176155043 0.4311961975 218 64 37
-49.83283911 27.2218525 65.85867401 -0.3282987679 0.01176155043 0.4311961975 218 64 37
-43.00674214 29.04777398 70.58514267 -0.2851008212 0.005923195579 0.4625976964 219 64 36
-49.59914092 28.78960578 66.12403883 -0.3326057279 0.01585979842 0.4277386718 218 64 37
-74.96212424 28.81604442 34.39799233 -0.5168552863 0.007022082493 0.2476555188 231 64 24
-58.25813475 31.92333146 58.77909236 -0.3899406237 0.01134455533 0.3931347065 223 64 32
-67.14766354 33.04196822 47.88824684 -0.4456526127 0.01176358155 0.3203937069 221 64 34
-76.45567954 34.00137696 31.36399146 -0.5048232151 0.01352773735 0.2077073596 220 64 35
-47.48717573 34.65028877 68.04426484 -0.3247894804 0.02179021238 0.4426584404 221 64 34
-79.27558862 34.86361982 23.59228047 -0.5275505318 0.01975190531 0.1596437661 222 64 33
-64.86316806 38.27980747 51.38124633 -0.4379764197 0.01160151968 0.3480474364 225 64 30
-67.88107393 38.69768207 47.40634599 -0.4589362005 0.01228917484 0.3273674811 227 64 28
-74.88241397 41.84783002 35.63469585 -0.5195133734 0.01834876764 0.2479372686 232 64 23
-66.89808461 43.24604686 48.99496985 -0.4779993554 0.01326153763 0.3369238934 236 64 19
-66.61182241 44.5939375 49.36310848 -0.4675490343 0.01461568283 0.3322806066 231 64 24
-72.50229229 45.38162895 40.42572802 -0.4901105975 0.00694206826 0.2751761419 226 64 29
-27.17165554 49.40887569 78.77892383 -0.1932896299 0.01951863365 0.5435260401 232 64 23
-70.92667628 47.84949425 43.0392072 -0.4930557201 0.008438075458 0.2908920204 231 64 24
-74.06892538 48.21803303 37.61633475 -0.5040395718 0.01011335382 0.2625881514 229 64 26
-69.45849952 52.61194646 45.70258061 -0.4507534261 0.02078094727 0.3017186099 219 64 36
-45.617661 57.64683384 69.94104048 -0.3070522589 0.03722271557 0.4530785038 221 64 34
-69.07021086 56.91869939 46.83709594 -0.4731696251 0.01995442751 0.3255486935 231 64 24
-44.59868917 59.64924879 70.72212062 -0.3021273319 0.02244864696 0.4686485456 225 64 30
-70.7806551 58.72626579 44.200009 -0.4886850058 0.02368958643 0.3027150428 232 64 23
-70.23719957 61.29150594 45.3779868 -0.4988118494 0.01353184975 0.3539166405 246 64 9
-62.86630922 -63.89636115 55.52502113 -0.4693717016 -0.02479885277 0.412965478 252 64 3
-45.99392378 -63.11831073 70.24581691 -0.3238743627 -0.01649208093 0.4645180702 228 64 27
-79.15224673 -60.84724059 26.76234353 -0.5652061044 -0.02219651626 0.1785096185 239 64 16
-75.07652954 -59.73733252 36.55686028 -0.5250946608 -0.02617134429 0.2533942549 235 64 20
-30.61392494 -61.38853847 78.07712875 -0.2260486664 -0.02540554054 0.5353028246 234 64 21
-27.584418 -60.30785464 79.10984449 -0.1897773258 -0.0343015935 0.490297997 212 64 43
-76.28511743 -57.3174565 33.72357431 -0.5335948516 -0.03302469868 0.2387836039 236 64 19
-38.83267996 -58.30938289 74.08677132 -0.2728965168 -0.01892198272 0.511943286 234 64 21
-40.45364027 -56.49404948 73.31007099 -0.277540771 -0.01779188048 0.5001389792 230 64 25
-52.30045278 -53.87143767 64.86466255 -0.358519352 -0.008671214065 0.4529412712 233 64 22
-38.8865965 -54.37398614 73.86199839 -0.2605332799 -0.01414143954 0.4876755772 223 64 32
-50.71814327 -41.59625855 65.62629151 -0.3420278808 -0.01656734059 0.4420910441 225 64 30
-47.22838827 -40.29166273 68.18769296 -0.3172111254 -0.01984599928 0.4647092094 227 64 28
-69.3917063 -39.25224045 45.12835636 -0.4711488204 -0.01752937435 0.3098204128 227 64 28
-48.25604252 -39.67627838 67.47239966 -0.320861725 -0.01701371973 0.4692736491 229 64 26
-61.89284485 -38.92709674 55.08889032 -0.4262971476 -0.01617928965 0.37927579 230 64 25
-72.55911421 -38.76810132 39.6623866 -0.484614082 -0.01400655805 0.2680330916 223 64 32
-22.76603226 -40.08042539 79.87775641 -0.1605627893 -0.001856524545 0.5438707212 228 64 27
-30.88222788 -39.44182211 77.06195314 -0.2140616747 -0.01107484349 0.5254181572 229 64 26
-32.1535827 -35.69227529 76.44986943 -0.2346434865 -0.006107921593 0.5214463411 230 64 25
-61.19021645 -33.4356423 55.60309462 -0.4114163761 -0.01228142716 0.380262717 226 64 29
-52.18276493 -31.0003492 64.03050376 -0.3521276879 -0.005237897262 0.4270427929 223 64 32
-46.52022091 -30.56630225 68.28921181 -0.3214246296 -0.00920329513 0.467530818 229 64 26
-70.56038695 -26.70680293 42.76353624 -0.4758646374 -0.01220167787 0.287383296 224 64 31
-72.37027304 -24.96156398 39.25281987 -0.4897132758 -0.006176491892 0.2563494344 223 64 32
-59.64825807 -24.03678563 56.90046852 -0.4080999027 -0.006191069242 0.3844434505 226 64 29
-39.51107155 -24.49283733 72.49277816 -0.2827161478 -0.004594027956 0.5042181944 233 64 22
-67.43363225 -22.66007883 47.51099434 -0.4643144852 -0.01677571152 0.3173265099 227 64 28
-46.79520813 -20.85933354 68.0459681 -0.3310066437 -0.01659846281 0.4748019489 233 64 22
-81.73592486 -20.1866479 10.7422355 -0.553473567 -0.01034286506 0.07220839603 225 64 30
-74.07063983 -19.69900425 36.0985589 -0.515696425 -0.00484149017 0.2437828734 230 64 25
-31.8464338 -19.59571868 76.16812898 -0.2304601859 -0.0009359701777 0.5149723573 227 64 28
-50.5771516 -18.27756765 64.97899618 -0.3491165936 -0.0008433187974 0.4386662034 226 64 29
-60.83111014 -15.88395205 55.44278877 -0.407116819 -0.00492796309 0.3754511804 223 64 32
-70.63196501 -15.05678614 42.25899702 -0.4795666784 -0.005866339313 0.2814035311 224 64 31
-34.53255913 -14.92475496 74.98033522 -0.2445237356 -0.00686755951 0.4927090522 222 64 33
-75.95670785 -11.93280841 31.74610266 -0.5244596621 -0.001955685336 0.2278174342 230 64 25
-41.52200175 -11.14013156 71.1956497 -0.2792413612 -0.002568051985 0.4772165579 223 64 32
-60.11228456 -8.758715201 56.1553067 -0.4087409699 -0.001482755567 0.3901117252 228 64 27
-30.26675194 -8.666299331 76.7647906 -0.2057509195 0.000924974538 0.5173430821 224 64 31
-37.90186667 -8.17959325 73.14570773 -0.2677948788 -0.00706564999 0.4990498718 228 64 27
-37.90186667 -8.17959325 73.14570773 -0.2677948788 -0.00706564999 0.4990498718 228 64 27
-45.55914065 -7.560549357 68.65219111 -0.3075053978 -0.0016246289 0.4634087177 224 64 31
-39.4650106 -6.735283108 72.29820037 -0.2714496347 -0.006152950711 0.4912634561 226 64 29
-36.95919319 -1.651174484 73.59976532 -0.2422129567 -0.004309873646 0.4876997799 219 64 36
-47.57614977 -1.593263283 67.2328859 -0.3125427902 -0.001324851074 0.449712965 221 64 34
-71.49355395 0.5128042043 40.59186657 -0.4922606437 0.001672626972 0.2747525555 227 64 28
-28.73634291 3.042178162 77.35751397 -0.1920600208 -0.001348278236 0.5148672407 221 64 34
-35.94669774 8.691333154 74.24320944 -0.2333346998 -0.0004679719147 0.478741714 214 64 41
-37.60774932 9.740561368 73.33621295 -0.239177171 -0.001268484225 0.4607680319 209 64 46
-71.14061476 10.66564458 41.34664544 -0.4641486304 0.0009414583626 0.2708920664 216 64 39
-71.14061476 10.66564458 41.34664544 -0.4641486304 0.0009414583626 0.2708920664 216 64 39
-46.08742103 11.24644283 68.2663535 -0.3245216931 0.00115604473 0.4794386233 233 64 22
-69.19032719 12.94130651 44.47643339 -0.4699472071 0.001461213312 0.2966269401 224 64 31
-49.28971945 17.95592361 66.05461985 -0.3379214365 0.01293523098 0.4595733714 230 64 25
-49.28971945 17.95592361 66.05461985 -0.3379214365 0.01293523098 0.4595733714 230 64 25
-71.19357546 18.49253927 41.51384778 -0.5000478993 -0.004758901936 0.2977270289 234 64 21
-44.44222445 23.17489554 69.56285455 -0.2981675354 0.009160610329 0.488186012 230 64 25
-45.14197143 25.05422027 69.06423484 -0.2937789748 0.008370484105 0.4816508617 227 64 28
-70.50901014 29.5018167 43.06873029 -0.4671885113 0.01326475379 0.2888013399 221 64 34
-71.56353831 31.41673353 41.22122143 -0.4874040468 0.004462864559 0.2843878408 227 64 28
-65.44075762 31.87789283 50.24577084 -0.427537901 0.01566257403 0.3426663959 221 64 34
-69.97583541 33.05182522 43.76096921 -0.4692998207 0.0156839206 0.2905617712 222 64 33
-68.51971971 33.83088403 46.36351358 -0.45718623 0.01959513067 0.3133984413 223 64 32
-38.0308856 35.95036176 73.58520361 -0.2644498744 0.01809854395 0.5074052303 231 64 24
-38.0308856 35.95036176 73.58520361 -0.2644498744 0.01809854395 0.5074052303 231 64 24
-73.70174168 35.57315208 37.39219723 -0.5074003991 0.01275956728 0.2561721752 229 64 26
-67.88460419 37.03143515 47.13647042 -0.4501425301 0.01559191186 0.320337537 223 64 32
-35.60793867 38.55639771 74.85013574 -0.2353518263 0.007804097353 0.5137388799 228 64 27
-65.18302391 38.49091948 50.88229977 -0.4433257353 0.00987381469 0.3470561697 227 64 28
-35.76748251 41.19953191 74.87049419 -0.2423776945 0.01394285774 0.5031815796 225 64 30
-54.34635845 40.59949441 62.53061466 -0.3784342788 0.00349137234 0.4207886607 228 64 27
-33.87118831 43.4179063 75.77833036 -0.2425769038 0.01195830746 0.5210298471 232 64 23
-75.3754911 42.12783951 34.28409422 -0.5255629623 0.02106961251 0.2415622396 233 64 22
-39.0476918 43.49107953 73.26384326 -0.2533736062 0.01569899797 0.4607858337 212 64 43
-63.91751644 43.42329754 52.73658541 -0.4260313145 0.01610706824 0.3528040848 223 64 32
-33.83347311 46.09270179 75.93547555 -0.2377214957 0.02529095399 0.5274648181 233 64 22
-40.69477215 45.78098889 72.49210667 -0.2757037455 0.01364656457 0.4820682033 224 64 31
-75.54535064 46.69320839 34.86955095 -0.522322836 0.01381835482 0.2343892715 231 64 24
-67.42096284 46.91503918 48.42722851 -0.4650747183 0.01706591009 0.3199659062 227 64 28
-65.31514457 47.56846933 51.30633789 -0.4487933672 0.02188041895 0.3488112164 229 64 26
-30.80215733 50.39172272 77.530162 -0.2272041384 0.02334587419 0.5472906994 239 64 16
-33.23247221 50.14256265 76.42878191 -0.2436232302 0.02534690857 0.5481291303 242 64 13
-33.23247221 50.14256265 76.42878191 -0.2436232302 0.02534690857 0.5481291303 242 64 13
-75.12303055 49.25587217 35.59055998 -0.5021194658 0.008421155841 0.2431533818 225 64 30
-72.90220917 49.5023775 39.72244984 -0.5041041224 0.01211166078 0.2789169098 232 64 23
-69.81885651 50.07453274 45.18537573 -0.4736437765 0.01361121103 0.3008470467 226 64 29
-64.03889752 53.12061116 53.36448422 -0.4379389161 0.02534953321 0.360878366 229 64 26
-73.07623038 53.64472171 39.80791862 -0.4907390538 0.01295373503 0.2597269167 224 64 31
-80.20192266 54.54702926 21.82884032 -0.5328253662 0.01071261011 0.1439587556 222 64 33
-49.91149577 57.59070841 66.90906109 -0.3420357985 0.01680369712 0.4669749353 233 64 22
-54.79575667 57.63467222 62.90236967 -0.3709319065 0.01719790845 0.4371027348 231 64 24
-78.00078757 57.58766993 29.63679826 -0.5307561163 0.02001611522 0.2083796117 230 64 25
-52.58948535 59.37361072 64.95053435 -0.3535301341 0.01616774418 0.4405984844 228 64 27
-50.79237012 61.50680947 66.44880814 -0.3395036696 0.01545138074 0.4379039693 223 64 32
-68.0053091 -63.32703218 48.66237395 -0.4770686417 -0.02620198346 0.3324038866 234 64 21
-70.4025395 -62.22592463 45.01988356 -0.4574108638 -0.04113510457 0.2932610959 219 64 36
-39.49773182 -62.07985539 74.03553069 -0.2470884567 -0.02151170672 0.4697315165 214 64 41
-78.73322957 -60.22773045 27.83199543 -0.528409346 -0.03278086473 0.1771717308 225 64 30
-75.62227401 -59.23000841 35.58251571 -0.5267793706 -0.03096483512 0.2485507878 235 64 20
-49.10572305 -59.39852483 67.68316681 -0.3413575635 -0.02856385661 0.4540600656 229 64 26
-52.68003941 -58.90261788 65.03206365 -0.3661667065 -0.03387549564 0.4500929956 234 64 21
-75.30997822 -56.99585084 35.93243859 -0.5381717451 -0.02389714476 0.2672066747 242 64 13
-61.48190319 -56.20568346 56.35051896 -0.4112542625 -0.0131928394 0.3818731354 226 64 29
-64.81198171 -53.9201607 52.38837036 -0.4343235439 -0.01795033059 0.3408598597 222 64 33
-75.61686715 -50.20164046 34.62438368 -0.5237743826 -0.02621694226 0.2524253104 234 64 21
-45.22487563 -47.23538491 69.82378957 -0.3140065843 -0.02344525822 0.4429140856 219 64 36
-57.82983286 -41.94718514 59.25616218 -0.3919733055 -0.02579710201 0.399395355 226 64 29
-63.56309552 -40.41359763 53.20036542 -0.4265221944 -0.01850488608 0.3552204557 224 64 31
-70.31216562 -37.77155899 43.47477169 -0.4759343919 -0.01791751543 0.3001072706 227 64 28
-30.86170325 -37.35213993 77.00401718 -0.2192493492 -0.007242080631 0.5193955371 227 64 28
-79.12671594 -35.48596519 23.90408477 -0.5396916077 -0.02626202841 0.1687041895 228 64 27
-55.01489274 -34.84885523 61.68976609 -0.3820578891 -0.01553192777 0.4205620554 229 64 26
-40.17699084 -32.946518 72.40349434 -0.2650006012 -0.00532165943 0.4783207007 220 64 35
-27.13900364 -33.11883914 78.38376249 -0.1888290514 -0.0042515704 0.5210678531 223 64 32
-70.78492351 -31.55015375 41.94756143 -0.4547836415 -0.0105647964 0.2666622598 212 64 43
-69.62894234 -31.25284601 44.87434335 -0.456835387 -0.01292474098 0.2904651667 218 64 37
-40.73874225 -30.77150191 72.07741623 -0.2797152162 0.003345930586 0.4914491916 228 64 27
-65.62959466 -27.1208078 50.16211443 -0.4448940708 -0.002344069164 0.3330715996 224 64 31
-17.12610435 -28.50870968 81.022914 -0.1230182913 -0.009054093164 0.5343649924 221 64 34
-66.9276203 -24.73002725 48.08161477 -0.4622267967 -0.005683123527 0.3171621875 226 64 29
-53.25834696 -19.43308863 62.95548478 -0.363779668 -0.005677131459 0.4205259673 224 64 31
-42.97989364 -19.4627292 70.61709808 -0.2985246725 -0.007824291698 0.4816424229 228 64 27
-73.22293495 -18.1812773 37.75984267 -0.5089219855 -0.004859902544 0.2503479876 228 64 27
-43.73614294 -18.23850341 70.04643891 -0.3014838 -0.01275335311 0.4713739804 225 64 30
-64.38109225 -16.08319758 51.69323944 -0.4119132837 -0.007595879209 0.348119479 217 64 38
-77.81065839 -13.27657686 26.66111805 -0.5376468708 -0.007750702421 0.1750608227 228 64 27
-56.77051515 -11.24494478 59.61591452 -0.3947366374 0.0003745535444 0.4091649097 229 64 26
-74.83823497 -10.73214353 34.13420619 -0.5156292298 -0.003258508247 0.2353910121 228 64 27
-65.08665109 -8.022289639 50.39991215 -0.4384208092 0.0007202983904 0.3345317795 222 64 33
-56.65218558 -6.957632281 59.55961175 -0.3889564408 0.0002947827781 0.4024581613 225 64 30
-74.25502568 -6.783642692 35.2577985 -0.5130187596 -0.001555795862 0.2422394798 228 64 27
-72.92474148 -6.423690074 37.92944768 -0.4952113942 -0.00438325021 0.2514856695 224 64 31
-74.20666001 -5.119875796 35.10195023 -0.5087722062 0.0002703895249 0.2480385563 228 64 27
-58.40694279 -2.352740101 57.75222466 -0.3996990144 -0.0008271682872 0.3783088787 222 64 33
-58.42826749 -2.341156861 57.80543425 -0.404434293 -0.0004365772815 0.3901546786 226 64 29
-71.19752951 -1.508573507 41.23325583 -0.4777010481 -0.001359671755 0.2680874659 221 64 34
-55.12795789 -0.4609018749 61.01798126 -0.3866670611 0.001294991626 0.4262434256 232 64 23
-60.51937253 0.2833167252 55.52095998 -0.4106983059 -0.002896836735 0.3784806208 225 64 30
-65.09288754 0.7202949145 50.0909643 -0.452027232 0.002326757233 0.3331571073 226 64 29
-77.8715235 0.9413335396 26.13156994 -0.5276227653 -0.001973265899 0.1864792834 225 64 30
-47.55084628 5.984710499 67.18287675 -0.319189707 -0.002006965525 0.443417096 220 64 35
-65.29738167 7.39581036 49.88098102 -0.4311123444 0.002487674636 0.3309206915 219 64 36
-59.03626787 8.801108848 57.12598599 -0.4030430022 0.003969365371 0.3860609898 225 64 30
-59.03626787 8.801108848 57.12598599 -0.4030430022 0.003969365371 0.3860609898 225 64 30
-46.52122743 9.199839645 67.9815345 -0.3220582735 0.003113056763 0.4675034623 229 64 26
-62.5429659 9.441216514 53.37699428 -0.4262963237 0.003227215036 0.3622492143 225 64 30
-75.21110493 9.370011182 33.38988883 -0.5084115838 0.004187604448 0.22685842 224 64 31
-30.86497478 15.76541849 76.73047703 -0.2224312425 4.869662497e-05 0.5048010683 222 64 33
-65.81651735 15.52551034 49.49429539 -0.4543828646 0.006929669154 0.3452621097 230 64 25
-65.81651735 15.52551034 49.49429539 -0.4543828646 0.006929669154 0.3452621097 230 64 25
-67.14674449 15.53186824 47.66360237 -0.4593853023 0.009478414816 0.3271283728 227 64 28
-32.96948487 21.33100019 75.8719039 -0.2100324968 0.01297837648 0.4982522332 218 64 37
-71.45900072 20.42788537 40.9622984 -0.4942328246 0.00069818588 0.2896908904 231 64 24
-42.27149661 21.42352733 70.86648865 -0.3068821157 0.002949331909 0.5079673538 239 64 16
-25.4817248 22.30785402 78.59379671 -0.1747859109 0.006152169128 0.543400709 230 64 25
-51.1577174 23.79260247 64.69160917 -0.3461232985 0.009360205692 0.4427464689 226 64 29
-43.06564631 24.84180762 70.31432349 -0.2817650839 0.006537746858 0.4899025208 228 64 27
-75.35867091 24.648814 33.62035761 -0.523011731 0.004067212447 0.2277115226 230 64 25
-71.72992092 27.59936949 40.8176883 -0.477354242 0.01542042145 0.2848554192 224 64 31
-70.18539206 31.36449264 43.57689865 -0.4649664513 0.009549142204 0.2913501752 221 64 34
-41.58534587 35.85565621 71.58147752 -0.2956781198 0.01112189318 0.486567294 229 64 26
-21.17606211 38.56397567 80.34619658 -0.1535238786 0.01384329436 0.5477846277 229 64 26
-57.83508876 36.69933032 59.11889911 -0.401658664 0.013567224 0.4010023449 229 64 26
-46.93084952 39.26310072 68.20611483 -0.3131213511 0.01344447843 0.451247278 221 64 34
-43.15674846 45.51359261 70.92619669 -0.3028946749 0.01139888269 0.4813273919 229 64 26
-45.86968683 50.60820603 69.45147225 -0.3187802155 0.01962517915 0.4589084453 225 64 30
-64.66415125 50.23023269 52.21501985 -0.4493587577 0.01761910857 0.3588507303 232 64 23
-64.66415125 50.23023269 52.21501985 -0.4493587577 0.01761910857 0.3588507303 232 64 23
-27.86092025 55.11067658 78.70537538 -0.1845009715 0.02778370037 0.512970744 220 64 35
-46.86439298 53.74874306 68.87136898 -0.3164856173 0.0273276816 0.4546686624 223 64 32
-77.44394981 54.9193224 30.90439969 -0.5145098526 0.02629739859 0.1982605502 222 64 33
-69.89920717 55.3369912 45.29666038 -0.469239317 0.02381272303 0.3072218786 226 64 29
-77.04059639 57.62111849 32.11049015 -0.5187335972 0.0296138849 0.2089884312 226 64 29
-31.01624757 60.55803824 77.77213004 -0.2265112173 0.02524312345 0.5387053134 236 64 19
-57.27883493 59.27405032 60.58801616 -0.3669325461 0.01135246952 0.4036717762 220 64 35
-39.29788714 60.6811081 73.88997615 -0.2838949536 0.01433249532 0.4981139885 231 64 24
-49.23637552 60.4677745 67.91218557 -0.329767837 0.01376357803 0.4447731368 223 64 32
-76.36737206 61.72247854 34.01919748 -0.5022142489 0.004554485512 0.2154190347 220 64 35
-74.52226176 62.57933064 37.83812861 -0.4614688069 -0.01885636151 0.2270328207 207 64 48
-76.24982648 -60.90893295 34.4179813 -0.5170494764 -0.03718837926 0.2236073096 227 64 28
-33.19631029 -61.85962716 76.99314456 -0.2492773699 -0.01389086712 0.5373139598 239 64 16
-56.06455183 -56.8672847 61.44125396 -0.3408639601 -0.01967159871 0.3989280553 211 64 44
-33.50624498 -58.23429818 76.55189331 -0.2429101227 -0.02072296948 0.5305097233 235 64 20
-55.18172418 -50.47840623 62.22266361 -0.3807692652 -0.009555097752 0.4185477966 228 64 27
-70.22878021 -49.63446254 44.58246335 -0.4896226246 -0.01765922657 0.3093179421 233 64 22
-71.24806295 -43.53300048 42.71110327 -0.4851753733 -0.02177233046 0.300182106 230 64 25
-49.68121678 -43.37659912 66.45875046 -0.3345068226 -0.02560926484 0.4551504407 228 64 27
-49.67987532 -43.40667863 66.45132207 -0.3334237347 -0.02302802484 0.4529491741 227 64 28
-74.01276407 -41.80316993 37.21326106 -0.4898128283 -0.01163201664 0.247708433 221 64 34
-74.23080276 -39.2918227 36.36694075 -0.4977095237 -0.01168762335 0.2476332083 224 64 31
-62.63718835 -36.85572239 53.73529466 -0.4240632407 -0.0152039692 0.3638541283 225 64 30
-69.18425348 -33.98343606 45.27616776 -0.4584413687 -0.01024674618 0.2937154123 219 64 36
-75.83183555 -33.95260086 32.83177494 -0.530486131 -0.01379695296 0.2374485116 234 64 21
-59.53453905 -32.78694744 57.27741879 -0.3986059397 -0.008766539814 0.3932726519 226 64 29
-45.53253082 -33.09305696 69.27078591 -0.3091977504 -0.02177680835 0.4725821608 228 64 27
-52.7327858 -32.96601536 63.45319797 -0.3634460373 -0.001752289836 0.4282486024 226 64 29
-56.01022136 -28.17610496 60.65477158 -0.3764669375 -0.007297681994 0.4125867142 225 64 30
-77.29086196 -27.98844199 28.57912752 -0.5218438536 -0.007676980392 0.1870630748 223 64 32
-65.046771 -25.05521221 50.65784647 -0.4427980956 -0.001734117728 0.3252257041 221 64 34
-74.83724727 -25.25657982 34.63396556 -0.50349669 0.001172437094 0.2381155372 224 64 31
-21.29945553 -26.44796437 80.08884972 -0.1606290821 -0.001816522286 0.5386296067 226 64 29
-78.03605905 -24.93325549 26.13501667 -0.5333231725 -0.007216866561 0.1727078207 226 64 29
-69.71617453 -20.38682161 44.05969906 -0.4815495681 -0.008426444137 0.2987650504 228 64 27
-37.68489226 -20.50835622 73.71599202 -0.2591607062 -0.0001859414288 0.4899454381 223 64 32
-68.3230717 -19.34969793 45.92038637 -0.4497942306 -0.01134454991 0.3010683003 218 64 37
-67.83284845 -16.98268926 46.82227863 -0.4386760047 -0.006518775355 0.3023478982 215 64 40
-58.61324046 -16.41566161 57.81075004 -0.3986457265 -0.006069023015 0.3909543222 225 64 30
-72.24800113 -14.38868487 39.16562655 -0.4873731193 -0.002442187079 0.256781649 222 64 33
-42.09777933 -13.38072179 71.04106843 -0.2820919905 -0.003437915949 0.4658743655 219 64 36
-21.80450456 -12.06300509 79.62859464 -0.1555277891 0.0003151168588 0.5374679052 225 64 30
-61.93880051 -10.62084929 54.09403198 -0.4296214896 -0.005772311286 0.3764729196 230 64 25
-66.51026647 -10.62222392 48.69574292 -0.4484759577 -0.004030265915 0.3393138878 226 64 29
-41.32912302 -9.242008889 71.35236242 -0.2826904605 -0.004106025746 0.4923549738 229 64 26
-54.12713629 -4.228337599 61.8654863 -0.3825436442 -0.001875957675 0.4153279727 227 64 28
-42.96135943 -2.950739354 70.27026076 -0.2854616531 0.00088064394 0.4679901294 221 64 34
-64.08189251 -2.171496393 51.50447014 -0.4338262292 0.001177333717 0.3469173419 224 64 31
-77.66760726 -0.1024546831 27.18385429 -0.5300050384 -0.003784118859 0.1899783573 227 64 28
-77.66760726 -0.1024546831 27.18385429 -0.5300050384 -0.003784118859 0.1899783573 227 64 28
-73.5445526 2.316000358 36.76433705 -0.4902215712 0.002014459171 0.2370861993 219 64 36
-72.23574917 3.137366326 39.39864435 -0.5005741692 0.003881423529 0.2715659105 229 64 26
-72.48415492 5.688154225 38.84978998 -0.4850307615 0.005458804135 0.2599195781 222 64 33
-67.11421971 5.760008174 47.62437406 -0.4783993567 0.003108826974 0.3172488636 231 64 24
-31.17638186 7.704335698 76.40620517 -0.2144040441 0.0007735461561 0.5213399106 227 64 28
-74.74801872 7.895555831 34.31366273 -0.5070078975 0.00317034887 0.2263338129 224 64 31
-64.05517474 14.85389546 52.062216 -0.4418422686 0.005183670546 0.3568362914 229 64 26
-16.8445731 18.57691588 80.91545824 -0.1250157539 0.009455265651 0.5523130691 228 64 27
-42.31889549 20.26291132 70.79404658 -0.308607586 0.005165616007 0.507011808 239 64 16
-72.45030842 21.27495475 39.50699583 -0.4970851036 0.004223494428 0.2810664936 230 64 25
-67.20692278 22.02675239 47.72629755 -0.4462901333 0.01574307403 0.31954047 221 64 34
-23.3718699 24.9307665 79.21919823 -0.1571364575 0.01277376406 0.5382243888 226 64 29
-53.46487922 24.26539147 62.84858546 -0.366984809 0.00627968564 0.4195333874 224 64 31
-66.27893589 34.32061471 49.34145034 -0.4470716764 0.01098769292 0.3305978426 224 64 31
-76.64657865 35.61259927 30.99135482 -0.5063018012 0.01739007962 0.2053488293 220 64 35
-75.42027281 37.12311979 34.2410838 -0.5084993314 0.03333379689 0.2325334556 226 64 29
-72.323213 38.91418327 40.09271359 -0.4935812545 0.01314301098 0.2713606934 227 64 28
-38.40682712 41.07550337 73.66827714 -0.2525907219 0.01840617009 0.4709938187 215 64 40
-69.17916328 41.73498718 45.59849123 -0.471173734 0.01081340039 0.3105675225 227 64 28
-76.93212888 42.37061396 31.34754944 -0.5085551888 0.02039100923 0.2119338183 222 64 33
-51.73387466 43.78257966 64.73722113 -0.3586806526 0.001679081775 0.4170659886 222 64 33
-42.10545053 49.80709656 71.71188165 -0.2908449502 0.01015552068 0.4847720964 228 64 27
-56.09340508 52.54862775 61.4599683 -0.3849460334 0.02315855413 0.4160895757 228 64 27
-72.63803381 52.0655251 40.29855328 -0.488348443 0.01935278628 0.2688172117 225 64 30
-78.17125289 52.37467377 28.42890263 -0.5224412527 0.02053138598 0.1904308258 224 64 31
-78.17125289 52.37467377 28.42890263 -0.5224412527 0.02053138598 0.1904308258 224 64 31
-43.84701357 61.1823246 71.34099859 -0.2875757664 0.01068673287 0.4619296683 219 64 36
-46.80784333 61.40814921 69.28599111 -0.3004698938 0.006353730988 0.4559587875 220 64 35
-79.80331207 -53.66996471 23.68984437 -0.5468027689 -0.02146347425 0.1622051647 230 64 25
-47.17046526 -53.09227892 68.83756447 -0.3199024672 -0.01934284614 0.4761727152 231 64 24
-80.68209048 -51.69017371 20.36174153 -0.5397761027 -0.01551941623 0.139053031 225 64 30
-65.46229989 -51.21751904 51.30143703 -0.4509220131 -0.01500290599 0.3405447297 228 64 27
-67.37036693 -39.41376099 48.29581905 -0.4468348747 -0.01653999825 0.3261998457 223 64 32
-76.12925356 -39.51669335 33.55682768 -0.5246612535 -0.01620543977 0.2463410729 234 64 21
-39.84059463 -40.1544021 72.74495478 -0.2858674874 -0.009102062985 0.4994827867 232 64 23
-75.10194541 -36.11094788 34.65438397 -0.518492895 -0.01649063736 0.2511432646 232 64 23
-69.87488218 -30.65235129 43.94333981 -0.4619429294 -0.01653168001 0.2871281939 219 64 36
-69.87488218 -30.65235129 43.94333981 -0.4619429294 -0.01653168001 0.2871281939 219 64 36
-41.58628373 -24.64219529 71.09476209 -0.306582178 -0.005270754529 0.5042845687 238 64 17
-44.3904202 -24.5856219 69.53097337 -0.3259747279 -0.004960179362 0.4902996289 237 64 18
-77.25607539 -15.51502611 28.20020715 -0.523391708 -0.01163294605 0.1894910114 224 64 31
-69.22334129 -14.74080764 44.75150369 -0.4646768189 -0.003874227461 0.2907923358 221 64 34
-79.36795261 -7.288074629 21.59029787 -0.5302740464 -0.0003751694696 0.1495213427 222 64 33
-54.57550307 -6.208426068 61.49481528 -0.3973487239 -0.001647122549 0.4156294358 232 64 23
-70.80684814 -2.924252374 41.86153561 -0.4694283957 -0.002389535757 0.2688695953 218 64 37
-51.64387229 4.598662656 64.04148398 -0.3526938724 0.004126118241 0.4221696517 222 64 33
-46.93620043 14.204833 67.66459774 -0.3312967226 0.008399720676 0.4756033134 233 64 22
-74.92563971 14.38767443 34.07969964 -0.4807174911 0.003158909145 0.2154803715 212 64 43
-56.48278582 16.34654717 59.90932621 -0.377173846 0.002980917025 0.408499086 224 64 31
-37.59625319 18.35199813 73.53981942 -0.2483106264 0.009916900942 0.4942120734 223 64 32
-63.18595635 34.05701605 53.27570412 -0.4117069974 0.007838853441 0.3592387231 220 64 35
-68.89240978 34.82283112 45.88596495 -0.4570168905 0.01822150857 0.3062644361 222 64 33
-78.01860945 34.56032229 27.65700791 -0.5174583346 0.01416735633 0.1867138772 222 64 33
-67.41096305 36.64627792 47.86510799 -0.4481828484 0.01426477335 0.3234493681 223 64 32
-65.75222326 39.56256631 50.39023448 -0.4539816788 0.009273824508 0.3482561116 230 64 25
-71.72787297 44.15792889 41.51965753 -0.4775351861 0.007845784568 0.2733576126 222 64 33
-76.29794026 46.11323728 32.76233397 -0.5153135891 0.01847365878 0.2191157883 226 64 29
-71.98726175 47.70889556 41.06233586 -0.4998279666 0.01096124149 0.2836694698 232 64 23
-57.47266034 49.04982836 59.92292666 -0.3901175923 0.01878791823 0.4116247703 229 64 26
-74.02666386 57.64606411 38.23165177 -0.5012687192 0.02274966095 0.2464571796 225 64 30
-74.02666386 57.64606411 38.23165177 -0.5012687192 0.02274966095 0.2464571796 225 64 30
-75.76555419 59.43827067 35.47330264 -0.4993128966 0.0201818079 0.220005346 220 64 35
-81.47093525 60.30458097 18.66514345 -0.5263724123 0.02021334193 0.1136533981 217 64 38
-76.85193788 -55.46689328 32.35108289 -0.5436353168 -0.03435136294 0.2227172667 237 64 18
-63.43869948 -41.85142579 53.33934037 -0.4223918781 -0.01646756634 0.3546844294 222 64 33
-72.32529232 -15.31524827 39.36516389 -0.4904579109 -0.002068276009 0.2614187827 224 64 31
-60.42142677 -12.53424042 55.82894064 -0.4224270924 -0.007513435898 0.3839736501 230 64 25
-69.43306986 -10.30658996 44.11468963 -0.4855353302 0.002264136971 0.2935639606 229 64 26
-72.62026808 -1.588271136 38.55194997 -0.4786805481 -0.001470373202 0.2528463151 218 64 37
-46.58460565 -0.4994929786 67.84956378 -0.3066818012 -0.0005617925822 0.4536752497 221 64 34
-71.65277781 8.443789038 40.46634673 -0.4716491507 0.00354650845 0.2700548039 219 64 36
-75.06242737 12.09397588 33.51642835 -0.4886959857 0.006422415838 0.2153843192 215 64 40
-62.24686648 26.78906364 54.08549901 -0.4023539053 0.009579268995 0.3582933547 217 64 38
-35.33050886 30.60496562 74.93863364 -0.2451345633 0.01316921192 0.5069021878 227 64 28
-33.80913009 32.87089429 75.92087249 -0.2224682643 0.01664134522 0.5111572999 225 64 30
-55.4774165 34.72041074 61.26325062 -0.3768821368 0.003505412514 0.4264182229 229 64 26
-32.64188734 39.28609045 76.38417873 -0.2239037278 0.007815215067 0.5223789026 229 64 26
-49.10053235 47.28028852 66.2955201 -0.3444240817 0.009787504941 0.4370674413 224 64 31
-48.58352072 52.12178709 67.5317666 -0.3304744964 0.01540573286 0.4625231225 229 64 26
-26.34889873 54.61507944 79.22972649 -0.183914783 0.01909925366 0.5386337082 229 64 26
-72.69309199 55.17508312 40.82999036 -0.4815398909 0.02787208097 0.2540363932 220 64 35
-80.76068062 56.83055662 22.80384093 -0.5263618228 0.006462705958 0.1304014067 218 64 37
-70.44593693 57.09487973 44.78480729 -0.4720300038 0.02272245297 0.2995308167 225 64 30
-80.0915757 -33.62949263 21.75557187 -0.5473675504 -0.02153445375 0.1606667336 230 64 25
-70.1125978 -24.86399774 43.35815181 -0.4743087527 -0.009942491299 0.2914707807 224 64 31
-36.41892674 -14.46738698 73.91642741 -0.2498867572 -0.002725586332 0.4751736972 216 64 39
-64.33153702 -7.670886837 51.24209406 -0.4384553261 0.0002472165263 0.3396819244 223 64 32
-72.54840816 14.27044038 38.80269583 -0.4809161378 0.004698623848 0.2613105256 220 64 35
-73.86942542 29.76530222 36.92373911 -0.5018625805 0.0114613961 0.2519279142 226 64 29
-65.78656911 43.81226586 50.32595268 -0.4653213395 0.01399512289 0.3424321692 233 64 22
-65.90560652 -32.55093933 50.02700799 -0.4372146705 -0.01046874759 0.3361864933 222 64 33
-60.89973054 -60.22848697 57.10531717 -0.4144531526 -0.01147751058 0.3871535017 228 64 27
-81.78183962 -54.97337258 16.29567218 -0.5679462505 -0.02279602215 0.1199984898 234 64 21
-75.02628374 -49.10262389 35.61506321 -0.5121570376 -0.02408566857 0.25576737 231 64 24
-75.71713587 -43.14366585 33.68205864 -0.5115403493 -0.01067883015 0.2354542185 227 64 28
-82.9860142 -36.10499021 0.2560381204 -0.5446487771 -0.02320444028 0.007086034051 220 64 35
-82.67667163 -23.39796686 0.6991775525 -0.5628309251 -0.01023988436 0.0127521362 227 64 28
-75.30149779 -3.324750706 32.8928142 -0.5211804525 -0.001968941153 0.2240043498 228 64 27
-82.3422827 21.40351039 -8.376721051 -0.547402662 0.004481915025 -0.05756087717 222 64 33
-81.22678351 31.08956502 15.85741363 -0.5656432287 0.01193172496 0.1199810009 233 64 22
-64.50506143 45.98455427 52.36469102 -0.4369989375 0.01732904421 0.3518978367 226 64 29
-76.39260048 59.11748147 33.90829666 -0.5067703379 0.0271574229 0.2122269489 222 64 33
-83.90525756 -62.07964863 -0.06565923632 -0.5715982584 -0.01705217551 0.007802494042 230 64 25
-82.60834803 -59.86718197 13.38195035 -0.5397583593 -0.03970184716 0.09005080185 221 64 34
-70.35401517 -60.33907923 44.91172654 -0.4570407026 -0.02951509141 0.2913891895 219 64 36
-83.35539341 -48.6516423 -2.276575918 -0.549018687 -0.00760213591 -0.01463973889 221 64 34
-81.18357127 -37.54616112 16.53120073 -0.5561522455 -0.01487942142 0.1098431839 228 64 27
-81.16302766 -36.81994226 16.14220702 -0.5555168278 -0.01436818762 0.1097028596 228 64 27
-80.10479484 -30.78642524 20.56853173 -0.566400857 -0.009236670824 0.1520885565 236 64 19
-82.60532324 -27.70820898 -6.313564358 -0.5496775488 -0.01061285641 -0.04163694152 222 64 33
-82.69342373 -25.20508972 1.637945009 -0.5639232183 -0.01296167511 0.01384315848 227 64 28
-81.59918475 -23.51586151 11.75737115 -0.5978844712 -0.01734133228 0.08859745865 244 64 11
-71.23191042 -22.29482471 41.62697412 -0.4974433368 -0.009851402209 0.2794910664 230 64 25
-74.64606721 -18.91066532 34.98206574 -0.5114362307 -0.006508658754 0.2305037792 226 64 29
-82.53448328 -18.00400351 4.61318955 -0.5510326722 -0.01022453136 0.05065592815 223 64 32
-68.15463674 -16.41916216 46.43658195 -0.5004577496 -0.00360353529 0.3088233345 237 64 18
-76.47547616 -15.15580923 30.57869607 -0.5181254021 -0.006111728023 0.2116259947 225 64 30
-74.81619279 -13.90987096 34.31015449 -0.5098952166 -0.0005050862376 0.2320052742 226 64 29
-69.00604132 -12.95381819 44.82889746 -0.470381213 -0.002012168185 0.2983195111 224 64 31
-82.07654779 -10.34604798 7.535751867 -0.5700909938 0.0003964487626 0.04150291475 230 64 25
-79.08889277 -2.857499815 23.10697787 -0.5458628858 -0.003986550397 0.1594677848 229 64 26
-82.4682485 -0.9894546841 1.263745382 -0.5577544382 -0.001229683242 0.01788938708 225 64 30
-81.76064169 1.083169118 10.18315542 -0.559134018 0.003021092877 0.0757646996 227 64 28
-81.08202837 2.249658769 14.43567505 -0.5536891512 0.00315367324 0.09963855813 227 64 28
-74.24962575 8.63821771 35.50404261 -0.4945515879 0.004525435651 0.230502324 220 64 35
-81.81655484 9.074084943 9.672454433 -0.5498150483 0.0001282584539 0.07009231645 223 64 32
