ply
format ascii 1.0
element vertex 527
property double x
property double y
property double z
property double ux
property double uy
property double uz
property uchar red
property uchar green
property uchar blue
end_header
68.77835168 -59.07885135 -39.36830876 0.4702495084 -0.001609346188 -0.2613215067 222 64 33
43.10940662 -28.54099466 -67.20311332 0.2827828147 -0.005531637977 -0.4356590245 214 64 41
58.64111446 -25.49814129 -53.62804032 0.4131297405 0.009340163803 -0.36633062 228 64 27
68.74824001 -27.32113318 -39.36799761 0.4215733198 0.002486169415 -0.2381218536 200 64 55
77.79049641 -59.0149738 -13.29986663 0.5433789508 -0.002042396701 -0.1027386654 228 64 27
-58.20564069 4.626665047 57.23446449 -0.3528464787 0.002084399024 0.3666159179 210 64 45
37.61123052 40.55611837 -70.53587676 0.2333583469 -0.008658045598 -0.4196976226 198 64 57
44.36757753 21.9229864 -66.25054829 0.2842794867 0.008825846964 -0.4338046293 214 64 41
-64.28909714 15.56021488 50.17537155 -0.406292878 0.0007349262376 0.3366219665 218 64 37
61.65602853 -57.5952511 -50.34437183 0.3990595582 -0.01465356733 -0.3005476196 206 64 49
47.91275838 1.37801222 -63.64399582 0.3110747124 0.001171320981 -0.4011880018 210 64 45
67.24395134 -1.417899369 -41.69736078 0.4372899012 -0.003843831407 -0.2819171831 215 64 40
29.73954179 46.04782686 -74.44534063 0.1853474594 -0.003156738922 -0.4679710451 208 64 47
41.74778919 -48.22544754 -67.99482414 0.2714184754 -0.01441379257 -0.4230306028 208 64 47
49.45491712 -30.48097817 -62.48752819 0.344007679 0.001068209403 -0.3951834868 216 64 39
-75.65746428 -1.666651857 30.80225895 -0.497914196 -0.0005716777456 0.2072077839 223 64 32
-81.9244881 -26.85472666 0.9816357976 -0.4958691838 -0.007728219527 -0.01272347042 205 64 50
59.32327014 -52.81485706 -52.85148459 0.4010016895 0.007807735435 -0.3360811976 216 64 39
78.93420176 10.47798429 2.289702127 0.5076957893 -0.0002510658511 0.02032883009 210 64 45
33.56949446 23.38658658 -72.63023927 0.2304281384 -0.00319426499 -0.4701981553 216 64 39
74.93336593 -49.88238098 -25.072234 0.44937064 -0.0103989407 -0.1530022816 196 64 59
1.130920711 43.01181599 80.38974513 0.01617405994 -0.004038098924 0.4994646504 206 64 49
53.62042925 41.07207803 -58.72125422 0.3588001705 -0.001199221379 -0.3744991896 214 64 41
63.49909236 -32.59915315 -47.3731357 0.4327492134 -0.009129389359 -0.2912805986 215 64 40
46.79868458 -4.368892604 -64.4080367 0.3174965694 -0.00268050291 -0.4152746932 216 64 39
-80.22892807 -0.3881370577 16.63039337 -0.5316085192 0.002954357514 0.1161920163 225 64 30
53.62042925 41.07207803 -58.72125422 0.3588001705 -0.001199221379 -0.3744991896 214 64 41
-73.57105037 -18.66588546 35.84108047 -0.4733330133 0.005774404896 0.2184058694 215 64 40
45.74229813 -16.45227892 -65.14197641 0.3008194297 -0.005253160095 -0.4213286695 214 64 41
63.49909236 -32.59915315 -47.3731357 0.4327492134 -0.009129389359 -0.2912805986 215 64 40
75.09303101 32.89088017 -24.86498675 0.4992489387 0.005110966095 -0.1483394193 215 64 40
45.76610396 -16.43146511 -65.16104237 0.3027684183 -0.004301897038 -0.4228956087 215 64 40
56.41142493 46.0746922 -55.85397058 0.3694019227 -0.002868236279 -0.3546993948 211 64 44
61.14922337 -13.13432653 -50.61327775 0.3820705239 -0.003127934021 -0.3099805938 203 64 52
-78.08651562 37.907282 24.6220803 -0.4713843008 -0.00145802573 0.1544235743 205 64 50
47.93752941 57.12257289 -63.66959875 0.306209214 -0.007043651137 -0.3875308783 204 64 51
-81.13892449 24.09035347 10.65061992 -0.5110556607 0.0007858390904 0.06597788145 213 64 42
45.38161129 -23.5222294 -65.55235138 0.3174872551 -0.001954021782 -0.4351466149 222 64 33
74.85362538 21.23735804 -25.52615961 0.4949847043 -0.00150673223 -0.1540227979 214 64 41
61.96186975 -28.95862221 -49.49543736 0.3905869009 -0.00707602976 -0.313180514 207 64 48
75.09303101 32.89088017 -24.86498675 0.4992489387 0.005110966095 -0.1483394193 215 64 40
42.06141429 22.57455118 -67.88070625 0.2810009261 -0.002783309956 -0.4273787117 211 64 44
53.94537437 -9.993450408 -58.25194417 0.3690891323 -0.001774642746 -0.3788200284 218 64 37
33.65508562 -60.08878658 -72.70844739 0.2165901304 -0.0299414021 -0.4671380953 213 64 42
-78.03110929 -59.28170701 25.03673481 -0.4944656876 0.008071545489 0.1494972801 213 64 42
61.96186975 -28.95862221 -49.49543736 0.3905869009 -0.00707602976 -0.313180514 207 64 48
-76.82443904 20.92109442 28.0982487 -0.4715803277 0.001132492026 0.1654181297 206 64 49
54.59164314 2.428585639 -57.60827981 0.3515767103 0.003956784848 -0.3675973424 210 64 45
71.88299917 -0.6800135757 -32.97704128 0.4570865575 -0.0028492296 -0.2137606978 208 64 47
67.5492629 14.79002774 -41.45176466 0.4397224483 0.001243080703 -0.2646329811 212 64 43
43.79667933 -2.683617035 -66.54956549 0.2931252286 -0.002091600231 -0.4167240704 210 64 45
63.75650313 0.7963087526 -46.91775847 0.4238655938 -0.001383993811 -0.3149213078 218 64 37
-77.85396974 -34.94796347 25.48261174 -0.483205074 -0.01319761088 0.1591665499 210 64 45
42.06141429 22.57455118 -67.88070625 0.2810009261 -0.002783309956 -0.4273787117 211 64 44
-80.60951851 -41.58353505 14.58027622 -0.5309924246 -0.0115326416 0.09232071885 223 64 32
61.01047599 26.83338598 -50.76534911 0.378630625 0.008188699367 -0.3186275117 204 64 51
43.83970655 -2.720067564 -66.52622162 0.2872116529 -0.0003551539642 -0.4199612639 210 64 45
-81.57092714 31.81254823 7.161763426 -0.5140313268 0.005182343078 0.03886482061 213 64 42
71.42654608 13.90919422 -33.65933842 0.5062735459 0.002321997315 -0.2256774404 229 64 26
60.58331224 17.03465899 -51.51540688 0.4304815679 -0.009244997014 -0.3626511852 232 64 23
-73.72982187 -15.2148547 35.2117665 -0.4337820395 0.006617136265 0.201134172 197 64 58
68.50332214 -59.97189505 -40.22793186 0.4088551083 -0.006390351871 -0.2420588843 196 64 59
71.26470198 -28.07929218 -34.26748843 0.4707634901 -0.0005912386937 -0.2190747554 214 64 41
-78.80037715 -5.223972148 22.06700971 -0.5197200935 0.001379179451 0.1467668125 223 64 32
36.23572218 -4.708710836 -71.15698604 0.249152104 -0.007013103275 -0.4660446016 218 64 37
41.47914677 13.26380333 -68.18261555 0.2753520405 -0.005128958774 -0.4330773588 212 64 43
68.00750975 17.27770914 -40.68296778 0.4400732138 -0.001442686662 -0.2635971014 212 64 43
76.90489183 -7.558925438 -17.87170758 0.5011215334 0.001087749859 -0.1101258081 212 64 43
65.83173713 -7.862454546 -44.06967171 0.4164395919 0.005527550654 -0.2729007157 206 64 49
-79.39199947 -50.41426044 19.88270699 -0.5040952814 0.003692100461 0.1334171505 215 64 40
56.20302155 -5.934114163 -56.02476448 0.3817153822 -0.006032098422 -0.3596737084 217 64 38
-71.21179035 54.3173874 40.03734295 -0.4415613017 0.01285501712 0.2383513612 207 64 48
-79.94859836 6.966173042 18.64197585 -0.495774277 -0.000506617234 0.1241302553 211 64 44
46.52063417 23.11898058 -64.75934938 0.2883414839 0.005123036764 -0.4294878019 214 64 41
49.56925659 7.430381941 -62.31756684 0.3253807161 -0.002326621942 -0.3968497434 212 64 43
-78.03110929 -59.28170701 25.03673481 -0.4944656876 0.008071545489 0.1494972801 213 64 42
69.26806246 16.82944942 -38.24229198 0.4553612371 0.005622353587 -0.2605159416 217 64 38
-80.19531303 -2.14984153 16.74463497 -0.5192910232 0.004140755805 0.1093132596 219 64 36
73.59703891 -0.3817520385 -29.06630599 0.4639279047 -0.0004026085207 -0.1762009078 205 64 50
43.9963298 -13.66173549 -66.45214868 0.2925293168 -0.007741334689 -0.4281363144 214 64 41
-81.24175756 -40.87693885 9.680214942 -0.5623257025 0.007036057803 0.07372727841 234 64 21
48.78266062 47.44195418 -62.98722503 0.325602324 0.003844823015 -0.4038988193 214 64 41
38.42561198 -6.601987459 -70.0634231 0.2586363484 -0.005024445921 -0.4543738266 216 64 39
43.9963298 -13.66173549 -66.45214868 0.2925293168 -0.007741334689 -0.4281363144 214 64 41
-81.76795937 -0.03959520046 3.521766572 -0.5160540202 6.515482727e-05 0.0345688389 214 64 41
33.77140466 -35.46759722 -72.57332314 0.2262986085 -0.01142836249 -0.4643570004 213 64 42
55.17274384 40.63662157 -57.17790324 0.3590335043 -0.0007347159332 -0.3581026617 209 64 46
-80.81060493 -56.06761045 14.08837735 -0.5019707546 -0.01578842467 0.09337131102 211 64 44
62.61122037 -12.54853452 -48.86077472 0.3845934044 0.002365390459 -0.3003477523 202 64 53
57.96839267 58.91739172 -54.37079779 0.3612670663 0.01002165052 -0.323671128 200 64 55
38.71722511 -30.76615581 -69.87828405 0.2543142014 0.0001159131298 -0.4464930733 212 64 43
57.65164375 37.03356286 -54.75099649 0.3775297987 -0.008777793088 -0.3597597948 215 64 40
-71.46954748 7.347195051 39.66564573 -0.4598094557 0.004810170815 0.2502747794 216 64 39
38.54969966 -30.72500538 -69.79666381 0.2530225123 -0.00918048576 -0.4463767585 212 64 43
-78.01464976 -25.83929945 24.77258916 -0.5023193059 0.001133207335 0.1551836131 217 64 38
25.51481106 17.26894152 -76.05644118 0.1883673572 -0.002077556675 -0.4827083054 214 64 41
65.96476905 58.73508901 -44.22925733 0.4439142066 -0.002643373861 -0.2851462127 218 64 37
-61.57892602 -33.12286323 53.46064669 -0.3566645643 -0.001070729155 0.3192399455 198 64 57
47.58119812 35.6586454 -64.11223802 0.3071930369 0.004176408158 -0.3898846598 205 64 50
40.70628843 -8.215612353 -68.60188783 0.2745377202 0.002781361983 -0.4503410773 218 64 37
31.79286474 -46.79552263 -73.5511815 0.2182723774 0.001569260272 -0.4729401503 215 64 40
47.58119812 35.6586454 -64.11223802 0.3071930369 0.004176408158 -0.3898846598 205 64 50
-71.1664622 -41.04147271 40.5644514 -0.4384476277 -0.002476570083 0.2633725225 211 64 44
47.58119812 35.6586454 -64.11223802 0.3071930369 0.004176408158 -0.3898846598 205 64 50
-78.97076525 32.54544813 21.25679042 -0.4686023241 0.01611437991 0.1245283478 200 64 55
4.603449181 24.68876412 80.21944623 0.04731094057 0.003619504337 0.5293349482 219 64 36
56.63587519 47.58764768 -55.81739626 0.3678035951 0.002036151782 -0.3463742302 209 64 46
52.33851355 42.99373928 -60.03223849 0.3486492803 -0.0006702679671 -0.3716873953 210 64 45
66.42945721 2.554496708 43.2383321 0.4254203766 -0.005262636188 0.2785758859 210 64 45
47.51002277 56.54383498 -63.94457776 0.3005163487 -0.0085000907 -0.3855387553 202 64 53
54.34060553 29.96663218 -57.91918618 0.3427756765 0.006738297557 -0.350557909 202 64 53
27.94161556 -16.26782147 -75.08794951 0.1782472742 0.0009823590243 -0.4648457764 206 64 49
-77.80198466 -59.29953923 25.94579035 -0.4913350381 0.004266539478 0.1510738353 212 64 43
70.62628299 40.81225281 -35.89799068 0.4615646088 -0.003006758778 -0.2238732996 212 64 43
40.53696547 -26.15073911 -68.73244483 0.2689709569 -0.003463354928 -0.4428716966 214 64 41
66.97941492 -30.79769016 -42.36004228 0.4562089821 -0.007523802535 -0.26980974 219 64 36
64.1811654 -30.47386422 -46.76203772 0.4354970982 -0.01298518828 -0.2917713636 217 64 38
61.23972066 -12.62828514 -50.76958826 0.3790612999 -0.00308239041 -0.3125381857 203 64 52
78.52945094 14.90210914 -7.246728725 0.4977897773 -0.00515414693 -0.04944041602 207 64 48
44.25338481 24.03801617 -66.38730406 0.3010324234 0.004525808391 -0.4510526332 224 64 31
-67.99759024 -54.54221557 45.08309197 -0.4097181124 -0.00769097351 0.2790915633 205 64 50
41.72744401 56.23970293 -68.23675139 0.2693826332 0.007390139773 -0.4132778704 204 64 51
59.93179722 -36.46678725 -52.17826403 0.3736003483 -0.003319811346 -0.3263234253 205 64 50
74.25822896 37.49997798 -27.50912744 0.4885674038 -0.0004492161395 -0.1724160858 214 64 41
40.53696547 -26.15073911 -68.73244483 0.2689709569 -0.003463354928 -0.4428716966 214 64 41
68.38690871 -29.73694294 -39.74830561 0.4213362608 -0.004651430887 -0.2284558438 198 64 57
52.51962222 1.373951936 -59.68180132 0.3330462812 0.003481233535 -0.3724733337 206 64 49
-78.03110929 -59.28170701 25.03673481 -0.4944656876 0.008071545489 0.1494972801 213 64 42
34.04822114 21.20047352 -72.40625282 0.2303185632 0.004571076846 -0.4630767737 214 64 41
44.25338481 24.03801617 -66.38730406 0.3010324234 0.004525808391 -0.4510526332 224 64 31
77.08800719 35.80472913 -17.76234093 0.4724913508 0.006163787876 -0.09454373999 199 64 56
38.01461451 47.86500193 -70.56953573 0.2607303265 0.002954431279 -0.4511553735 215 64 40
77.17810348 14.2303113 -17.08618885 0.4598096952 0.006981639073 -0.08262750729 193 64 62
59.93179722 -36.46678725 -52.17826403 0.3736003483 -0.003319811346 -0.3263234253 205 64 50
52.51962222 1.373951936 -59.68180132 0.3330462812 0.003481233535 -0.3724733337 206 64 49
59.17510507 44.16063017 -52.95781436 0.3919123389 -0.002986088382 -0.3218298863 209 64 46
56.14025543 -8.487296692 -56.10211134 0.3795611663 -0.003083801822 -0.3634905338 217 64 38
51.61970843 53.36499474 -60.85939615 0.3212430343 0.008090242277 -0.3607812705 200 64 55
-81.94832284 11.33343379 1.215967414 -0.5054117358 0.006398339115 0.01376961394 209 64 46
52.51962222 1.373951936 -59.68180132 0.3330462812 0.003481233535 -0.3724733337 206 64 49
59.93179722 -36.46678725 -52.17826403 0.3736003483 -0.003319811346 -0.3263234253 205 64 50
63.66221707 21.96779422 47.19837251 0.4091280492 0.004866602434 0.2986757449 209 64 46
68.85102625 -37.94283726 -39.40779798 0.4431750084 -0.001178197786 -0.2514419176 210 64 45
36.06750544 -6.91903743 -71.24167257 0.2412932733 -0.00707625051 -0.4725048776 219 64 36
52.51962222 1.373951936 -59.68180132 0.3330462812 0.003481233535 -0.3724733337 206 64 49
-78.01464976 -25.83929945 24.77258916 -0.5023193059 0.001133207335 0.1551836131 217 64 38
38.01461451 47.86500193 -70.56953573 0.2607303265 0.002954431279 -0.4511553735 215 64 40
-74.4896131 22.4907049 33.51874506 -0.502027106 -0.008833092157 0.2003151207 223 64 32
68.85102625 -37.94283726 -39.40779798 0.4431750084 -0.001178197786 -0.2514419176 210 64 45
65.76796639 24.53815609 -44.31114957 0.4325978358 0.006187879563 -0.2822898958 213 64 42
52.51962222 1.373951936 -59.68180132 0.3330462812 0.003481233535 -0.3724733337 206 64 49
63.66384272 21.96097831 47.19493698 0.4060842847 -0.000117645645 0.3039853118 209 64 46
58.32365908 27.55376891 -54.0586909 0.3778315823 -0.001409965372 -0.3508499042 213 64 42
68.85102625 -37.94283726 -39.40779798 0.4431750084 -0.001178197786 -0.2514419176 210 64 45
62.47872418 2.786562131 -48.98135461 0.4245317734 0.0001148842722 -0.3321804851 223 64 32
-79.50825815 -6.687680101 19.49828362 -0.4870540719 -0.0002802770854 0.1222900681 207 64 48
40.4986337 36.27187574 -68.94367327 0.2595798851 -0.007643929129 -0.4193722762 204 64 51
-81.45349839 34.59816489 8.566984273 -0.517344352 0.004361916159 0.05791123858 215 64 40
66.88674244 38.08908113 -42.76216602 0.4408336624 0.003640805714 -0.2722376083 214 64 41
49.57672052 17.94152966 -62.33277408 0.3197903343 0.001749736764 -0.3857882759 207 64 48
-57.04664313 5.501165717 58.00100337 -0.3430375114 0.001776574152 0.362293603 206 64 49
62.47872418 2.786562131 -48.98135461 0.4245317734 0.0001148842722 -0.3321804851 223 64 32
52.5429291 -55.2347259 -59.87631089 0.3313816639 -0.01148025981 -0.386361606 210 64 45
77.06172703 54.05869246 -18.32377571 0.4524381853 -0.005394832551 -0.1030585599 192 64 63
51.24022464 -47.14335459 -61.05201565 0.3182919081 -0.01081977698 -0.3629144394 199 64 56
-81.6517948 9.490180511 6.427318178 -0.5002312199 0.002588391388 0.04609043559 207 64 48
53.13470584 16.61142182 -59.2811582 0.3500540535 -0.002793525801 -0.3834281057 214 64 41
-76.84994284 57.52528456 28.72131006 -0.4667028658 -4.44857505e-05 0.1868142678 208 64 47
36.55579264 -19.12808 -71.18123161 0.2245651214 0.004259930474 -0.4308289734 201 64 54
46.36031409 -0.010906775 -64.65416272 0.31557403 0.001087358024 -0.4229590064 218 64 37
31.86555571 -18.93200045 -73.39063355 0.2030718082 0.002360846429 -0.4586472751 207 64 48
76.91449534 39.98313447 -18.44174959 0.5036806963 0.002809982439 -0.1145445364 213 64 42
46.53999883 -13.29832727 -64.69051431 0.3190479414 -0.007873131844 -0.4332698385 222 64 33
74.3952386 -28.84713069 -26.19340028 0.4763273116 -0.007997744219 -0.1595959116 207 64 48
51.08235656 -58.91086603 -61.39977946 0.3501383767 -0.004158758178 -0.3896457591 216 64 39
-81.66358507 -8.619513966 5.384403515 -0.5218546994 0.005767836603 0.02351033241 216 64 39
51.10216545 8.336807821 -61.12277069 0.3245602834 -0.002954397732 -0.3821523097 207 64 48
-72.75533681 2.318935498 37.51399838 -0.452827133 0.0007724796042 0.2321354554 210 64 45
54.75366864 26.3846741 -57.51224937 0.3534300133 -9.104188468e-05 -0.3635388513 209 64 46
51.99333258 -5.437224338 -60.2160523 0.337830907 -0.006915703316 -0.3679234833 206 64 49
51.08235656 -58.91086603 -61.39977946 0.3501383767 -0.004158758178 -0.3896457591 216 64 39
75.57988499 13.3721821 -22.74872098 0.5060930288 -0.001827346818 -0.1410765192 217 64 38
59.76186316 2.439677747 -52.24772913 0.3768171486 -0.001652384153 -0.3095819796 201 64 54
-81.96367792 19.17811817 1.413444314 -0.5182275224 0.01259731543 0.001342372772 214 64 41
-80.08248643 -58.40667023 17.60386661 -0.4919283753 -0.004098872998 0.1131077068 208 64 47
32.30989269 -46.1576227 -73.21920995 0.2013984225 -0.006083525516 -0.461603213 208 64 47
44.00465586 7.225912528 -66.44071986 0.2919236383 -0.005445961947 -0.4295279636 214 64 41
42.87207155 -39.03734572 -67.31509723 0.2873133784 -0.0003563329762 -0.4366426983 216 64 39
69.7639178 56.59071109 -37.80161169 0.4492148161 0.004728740996 -0.2194852155 206 64 49
72.46905226 -39.47840081 -31.47223741 0.5115543289 0.0083010991 -0.1917088066 226 64 29
32.30989269 -46.1576227 -73.21920995 0.2013984225 -0.006083525516 -0.461603213 208 64 47
67.59767984 -14.98804105 -41.11181968 0.4324889712 -0.005160277321 -0.247728525 206 64 49
26.64690281 11.26902222 -75.63526943 0.1886793244 0.00106871684 -0.4765881957 212 64 43
40.98688648 -26.39722621 -68.34529865 0.2674675465 -0.005421897484 -0.4363405472 211 64 44
70.75744027 17.9741993 35.65864135 0.4549479695 0.005395897281 0.2287763355 210 64 45
36.946695 -24.50214083 -70.69246959 0.2488654463 -0.004177279745 -0.4390147602 208 64 47
-80.79464981 32.35164989 13.85759662 -0.5087632229 -0.008926083318 0.08851537563 213 64 42
74.90815325 0.7929712271 -25.11180571 0.4802645864 0.001276589018 -0.1588289797 209 64 46
51.99572929 7.333863149 -60.22137015 0.3339969816 -0.004235432486 -0.373970764 207 64 48
-74.48218326 36.88482253 33.68303472 -0.4653166691 0.01692394032 0.218546331 212 64 43
59.33663096 -54.13235562 -52.85124805 0.4071616117 0.006556660024 -0.3447920602 220 64 35
32.78627714 8.487703659 -72.95084963 0.223061836 -0.001687439853 -0.4650321093 213 64 42
64.36282417 37.73608928 -46.65101065 0.4051294166 0.003320489056 -0.2729082602 202 64 53
39.55242793 45.07596204 -69.53221647 0.2589627164 0.008551345445 -0.4258460227 206 64 49
77.84743871 37.32933429 -14.26601161 0.4596998531 -0.003904034832 -0.06434723637 192 64 63
67.04510907 58.68115929 -42.559127 0.4683163379 -0.002871322609 -0.2924855372 228 64 27
-81.69088907 44.35600574 8.253280267 -0.5549701041 -0.005636847742 0.05823890406 230 64 25
50.53612076 13.4166423 -61.47029917 0.3302479645 -0.000704684305 -0.3985792338 214 64 41
-77.99022354 57.07853793 25.1669188 -0.4969199413 -0.006264804979 0.1725540542 217 64 38
31.74520875 39.86899269 -73.5530504 0.2135322098 0.007623750823 -0.4668972622 212 64 43
38.52131958 -43.67113253 -70.09890641 0.2544345095 -0.004890109501 -0.4476445069 213 64 42
-72.05556353 -25.62926333 38.98577502 -0.4587147371 0.004535608718 0.2613693658 218 64 37
66.75312363 58.67323334 -42.81355458 0.4638854516 -0.001794652986 -0.2893083505 226 64 29
44.59445847 2.872041594 -65.94767326 0.3222305259 0.0003204619822 -0.460977247 232 64 23
78.23027164 -25.10090012 -10.68735453 0.5223931003 -0.001282391809 -0.07151674198 218 64 37
50.53612076 13.4166423 -61.47029917 0.3302479645 -0.000704684305 -0.3985792338 214 64 41
-81.25420087 19.50706712 9.774236337 -0.50548204 -0.007437997273 0.06087373239 210 64 45
68.93220233 53.72837446 -39.44348605 0.4118088238 -0.00563279241 -0.211623911 191 64 64
-67.18204393 -10.73550107 46.4205581 -0.4138744658 0.001638518971 0.2955636744 210 64 45
41.67509097 -52.65120293 -68.17778327 0.2784903475 -0.000461756667 -0.4492885864 218 64 37
54.45964966 25.99199251 -57.90540774 0.3489421237 -0.001814593627 -0.3647388552 208 64 47
44.59445847 2.872041594 -65.94767326 0.3222305259 0.0003204619822 -0.460977247 232 64 23
71.02856402 3.290763726 -35.26016078 0.4373043629 -0.003258493813 -0.2234538557 203 64 52
41.67509097 -52.65120293 -68.17778327 0.2784903475 -0.000461756667 -0.4492885864 218 64 37
78.87671877 -47.01420141 -1.082164995 0.5016741739 -0.00787526779 -0.004231351602 207 64 48
7.865652776 -19.79289439 80.06758025 0.05298120557 -0.0009241263566 0.48882941 203 64 52
33.93560276 -4.457341039 -72.31265154 0.2463255672 -0.005237550152 -0.4856086608 225 64 30
52.19372174 -34.64285715 -60.08971202 0.3499485001 -0.004201440825 -0.3840820421 215 64 40
-80.85320423 28.50526607 12.65085383 -0.5631217387 -0.003280866173 0.1009097944 236 64 19
-82.00616363 59.95950544 3.427751496 -0.5146290476 0.02403092421 0.02476203635 213 64 42
-77.08667534 39.08397629 27.50227784 -0.4830456783 0.007854246988 0.1676835718 211 64 44
44.59445847 2.872041594 -65.94767326 0.3222305259 0.0003204619822 -0.460977247 232 64 23
32.58762828 -55.07394473 -73.24954512 0.2242099189 -0.001054806132 -0.4523273688 208 64 47
52.19372174 -34.64285715 -60.08971202 0.3499485001 -0.004201440825 -0.3840820421 215 64 40
-81.79935055 -1.314793143 -2.326833515 -0.5348644596 -0.000102079792 -0.003965885857 221 64 34
76.75036965 17.83162819 -18.61456114 0.5160669199 -0.01166244033 -0.1281789041 220 64 35
57.80366604 -39.34655011 -54.59416631 0.3742264685 0.004600389918 -0.352237204 212 64 43
36.05531605 17.19555656 -71.33133425 0.232165008 0.001747536045 -0.4369678716 204 64 51
49.55981108 17.38711703 -62.34220118 0.335237852 0.002102526241 -0.4000972881 216 64 39
-78.54183459 -56.46331029 23.07720819 -0.5130403424 -0.002507110361 0.1441951771 220 64 35
64.57006295 54.33361537 -46.22733441 0.4111605495 0.001305360284 -0.2898953513 208 64 47
44.05654013 -46.29802239 -66.53447175 0.2834264696 -0.003280073737 -0.442136074 217 64 38
-73.34600508 -34.59789969 36.04077987 -0.4690548945 0.007712407239 0.2458201217 219 64 36
70.73268635 -57.42855025 -35.66137832 0.4806433275 -0.01063868586 -0.2273154147 220 64 35
70.64627567 -5.911321459 -35.63164317 0.4256595722 -0.001226259706 -0.2226538573 198 64 57
48.26955911 49.15131436 -63.28667901 0.3239979233 -0.001611912874 -0.4070007133 215 64 40
75.38637138 48.4895743 -24.12727427 0.4879765793 0.006604706379 -0.1550660278 211 64 44
27.67516667 -12.5051767 -75.22885363 0.1900427425 -0.001125675227 -0.4724941923 210 64 45
68.8334869 20.36341224 -39.00278129 0.4302239751 -0.002559749721 -0.2441930507 204 64 51
-77.87507478 40.01422448 25.50414041 -0.4833086439 0.003081484316 0.1547946884 210 64 45
27.67516667 -12.5051767 -75.22885363 0.1900427425 -0.001125675227 -0.4724941923 210 64 45
-81.2858038 34.5582724 10.36296674 -0.5173055405 -0.008198667389 0.06529700566 215 64 40
-81.88883241 24.24798111 -3.059887565 -0.5147959095 0.00637060399 -0.02070232393 213 64 42
43.80509209 -20.97804926 -66.56993326 0.284575015 -0.002501299076 -0.4249694396 211 64 44
43.18433788 48.6972511 -67.42842813 0.311234666 -0.01043467409 -0.4378694625 222 64 33
-80.29818334 29.43381976 16.50102029 -0.524381029 0.002299377802 0.1174997375 222 64 33
77.87581945 46.72001083 -14.08688512 0.4983221516 -0.01425408377 -0.09191726985 209 64 46
54.33072883 0.5013236732 -57.86546524 0.3586348928 0.004503664825 -0.3736436549 214 64 41
41.35080124 35.9304705 -68.3302644 0.2732738874 0.0003461853903 -0.4182875274 206 64 49
-80.75534658 38.89304873 13.99863426 -0.5279178543 -0.00453048317 0.1105851584 223 64 32
57.43530279 -8.649932354 -54.83382373 0.3796573734 -0.004379273507 -0.3521926452 214 64 41
72.40610014 59.41805532 -32.81145127 0.4901628236 -0.01017716458 -0.1841854885 216 64 39
78.06510219 -57.91817894 -12.422461 0.5522826993 -0.0006721418306 -0.09770280148 232 64 23
64.91199436 33.55759969 -45.37463882 0.4461407505 -0.004373671425 -0.3038545155 223 64 32
-78.47205332 -4.235350214 22.9333395 -0.5260234172 -0.0002549726427 0.1514488355 226 64 29
69.71312065 32.14399811 -37.8525602 0.438034448 0.0008096649536 -0.2239433746 203 64 52
66.83140562 58.2876386 -42.76712882 0.4596677342 0.002575480078 -0.2812399893 223 64 32
54.74992243 -59.85496535 -57.73518921 0.3579388014 0.0003074787706 -0.3652535152 211 64 44
36.39134999 32.78062861 -71.12837241 0.2347872698 -0.008650425724 -0.4564050566 212 64 43
-81.66705465 58.22761235 8.051178431 -0.5359597787 -0.002188040409 0.06485504 223 64 32
66.83140562 58.2876386 -42.76712882 0.4596677342 0.002575480078 -0.2812399893 223 64 32
54.74992243 -59.85496535 -57.73518921 0.3579388014 0.0003074787706 -0.3652535152 211 64 44
33.38158459 -21.05810351 -72.66775055 0.1963633322 0.001596352246 -0.4357759008 197 64 58
53.83880802 29.42118801 -58.42706803 0.3420215695 0.00104681204 -0.3578225143 204 64 51
54.88315838 21.3634608 -57.73962996 0.3636379995 0.007141779186 -0.3727685094 215 64 40
71.3534362 29.19899071 -34.21363427 0.4489159633 0.01474632249 -0.2134758757 205 64 50
57.25020497 -29.35480503 -55.07351219 0.383343408 0.00544504793 -0.3553231759 216 64 39
-78.0716013 -33.03807156 24.6005276 -0.4791914072 -0.01318709813 0.15865573 209 64 46
54.88315838 21.3634608 -57.73962996 0.3636379995 0.007141779186 -0.3727685094 215 64 40
-77.05715607 -59.4009309 27.7250369 -0.5067687833 -0.004732731447 0.1660422865 220 64 35
57.25020497 -29.35480503 -55.07351219 0.383343408 0.00544504793 -0.3553231759 216 64 39
42.06128339 17.59435012 -67.69385071 0.2825508167 0.004629888806 -0.4211308087 209 64 46
41.3197241 6.582614848 -68.31491135 0.2975461147 -0.004980876283 -0.4520427274 223 64 32
75.33541166 46.59473283 -24.45016586 0.4617744059 0.004504103626 -0.1514198304 201 64 54
57.91650667 27.37980851 -54.44956946 0.3728207809 -0.001106081884 -0.3496678769 211 64 44
69.19975602 37.26814557 -38.34966197 0.4716025238 -0.004863725621 -0.2590770103 222 64 33
57.25020497 -29.35480503 -55.07351219 0.383343408 0.00544504793 -0.3553231759 216 64 39
-81.86118146 -44.08134217 6.026242317 -0.4837045632 0.0007135509257 0.01806821904 200 64 55
57.91650667 27.37980851 -54.44956946 0.3728207809 -0.001106081884 -0.3496678769 211 64 44
-76.11524753 42.00284121 30.40595269 -0.4421154934 0.01497590815 0.1853148693 198 64 57
51.95026763 44.23398182 -60.43737839 0.3468205235 0.003568817014 -0.3664599644 208 64 47
65.55042066 48.56253531 -44.55504641 0.4186843518 0.01158079049 -0.2891304104 210 64 45
51.9339796 0.4926396773 -60.29279897 0.347642111 0.001112971388 -0.3858841007 214 64 41
34.69108514 -28.56950502 -72.10372051 0.2333742905 0.002372074915 -0.4502478622 209 64 46
77.16062322 35.61901761 -17.50727177 0.4702559869 0.005690798741 -0.0914508414 198 64 57
55.96196809 -24.18076681 -56.30540939 0.362235666 0.004650390852 -0.3485608954 208 64 47
-79.59243479 -2.854294206 18.87601704 -0.5183310237 0.004500794131 0.1243866407 220 64 35
42.72020076 48.45448373 -67.48499679 0.2820454555 -0.009260151882 -0.4262094279 211 64 44
-80.60951851 -41.58353505 14.58027622 -0.5309924246 -0.0115326416 0.09232071885 223 64 32
45.70507473 2.282872333 -65.18678097 0.3148307683 -0.001256524759 -0.4437126977 225 64 30
51.18500849 -47.60042527 -61.16425662 0.3183057013 -0.01121882853 -0.3623733698 199 64 56
43.17486762 -55.39943744 -67.31214962 0.2958543961 -0.009276965995 -0.4260608089 214 64 41
73.86493137 -25.52281602 -28.00562965 0.4937200619 -0.003556302065 -0.1715183255 216 64 39
74.92128218 -49.95372969 -25.52209949 0.4453014942 -0.0112550798 -0.1577775992 195 64 60
78.83778321 -0.1758075768 -2.679923272 0.5003546281 -0.002420433222 -0.01213205294 207 64 48
-72.43809071 -34.54557253 38.52518281 -0.4406040986 0.01268327143 0.24356736 208 64 47
45.70458495 2.323800041 -65.18658798 0.3011593106 0.0001947070286 -0.4325179611 218 64 37
4.821910093 5.591164848 80.23961879 0.04809919807 -0.002701664968 0.4969605561 206 64 49
63.15762361 -54.57094925 -48.18131636 0.427918645 0.01309115106 -0.3072573788 218 64 37
59.80595123 -39.26634706 -52.30226223 0.378698028 0.007629257566 -0.3286999046 207 64 48
72.32365217 11.45160858 -32.18873885 0.518074479 0.0007716284631 -0.2121839324 231 64 24
49.56252766 6.722597284 -62.31910463 0.3271327369 -0.002879052931 -0.3944304165 212 64 43
52.96605648 -42.15359928 -59.38110043 0.3360539805 -0.01103163949 -0.3625707687 204 64 51
71.58671515 11.30408782 -33.7535429 0.4676151396 0.002441520877 -0.206463619 211 64 44
-70.66760665 24.20944828 40.95536786 -0.4714748706 0.005301389489 0.2764658836 226 64 29
59.80595123 -39.26634706 -52.30226223 0.378698028 0.007629257566 -0.3286999046 207 64 48
-76.29752862 -47.80064692 29.51052328 -0.4588175292 -0.00390510959 0.1785397443 203 64 52
46.11727201 27.58130007 -64.89182814 0.3416863509 0.002151559579 -0.4417843813 231 64 24
71.37078429 9.20072807 -34.25414952 0.4656591594 0.01647119744 -0.221601294 213 64 42
71.58671515 11.30408782 -33.7535429 0.4676151396 0.002441520877 -0.206463619 211 64 44
77.05001225 -58.97454435 -17.68832678 0.4751334091 -0.004341405528 -0.1041082042 201 64 54
-66.63753397 9.62953693 47.31248271 -0.4013525454 0.002577883038 0.2949402707 206 64 49
37.01029638 -30.25489682 -70.88005833 0.2300300298 -0.01076371977 -0.4432899039 206 64 49
36.23100967 -55.70777435 -71.30424062 0.2280075826 0.001266507444 -0.4405191775 205 64 50
39.95240036 -23.67018115 -69.0468378 0.2578979264 -0.005590099772 -0.4354629847 209 64 46
71.30517817 -27.54476978 -34.38727194 0.4615608476 -0.005704830944 -0.2113883443 210 64 45
-81.8056058 3.628393366 -2.991272649 -0.51610617 -0.003575829308 -0.01477577168 213 64 42
68.96405573 17.19206564 -38.48351995 0.4554977213 0.003319899394 -0.2624279925 217 64 38
-77.03062043 58.84849405 28.00557004 -0.4266947119 0.01404840875 0.1823723024 192 64 63
-53.14777042 11.74224826 61.5357635 -0.347197987 -0.005191356047 0.3882128777 215 64 40
45.86241102 -60.03375948 -65.31462552 0.3015399301 -0.01186425153 -0.3878108234 203 64 52
57.92078776 25.6726994 -54.42797307 0.3650869826 -0.003377969126 -0.3418524689 207 64 48
77.30430068 58.53197199 -17.63754891 0.5005136334 0.004320227682 -0.1090769805 212 64 43
38.85496536 -56.92777261 -69.89002003 0.2608644362 -0.003099453359 -0.4410987317 212 64 43
32.28590321 -18.74346756 -73.13851774 0.2053316896 0.001626238298 -0.455458239 206 64 49
61.09223787 -53.88480805 -50.83126512 0.4348087581 0.008463061208 -0.3308894581 226 64 29
-76.15104259 -14.11689525 29.93766518 -0.4729794329 -0.003214967455 0.1955067323 211 64 44
37.44384566 18.93322293 -70.61199321 0.2499479496 0.0002913356829 -0.4347944971 207 64 48
-73.89179523 25.64204306 34.97844204 -0.4895603259 -0.006844193244 0.2337841305 224 64 31
57.92078776 25.6726994 -54.42797307 0.3650869826 -0.003377969126 -0.3418524689 207 64 48
71.42822474 17.84750461 -33.8406769 0.4641007211 0.006027762915 -0.224380041 213 64 42
45.56173756 -2.1472286 -65.4274746 0.3074055073 -0.002324378584 -0.4217423596 216 64 39
61.16127023 18.66444277 -50.71896709 0.4005087691 0.0003852931849 -0.3128428676 210 64 45
40.74274567 -7.167788355 -68.57593232 0.2743479802 0.0003203914782 -0.4438885134 215 64 40
52.84800306 -49.36411329 -59.52125487 0.3551714773 -0.004249319098 -0.375714467 214 64 41
-81.70080551 -16.08527021 -4.80581724 -0.5222194221 -0.00734617587 -0.02569879693 216 64 39
45.56173756 -2.1472286 -65.4274746 0.3074055073 -0.002324378584 -0.4217423596 216 64 39
-70.23138647 -32.19016298 42.08431938 -0.4253996952 0.001914800903 0.2540261733 205 64 50
68.9830122 -50.80858277 -38.82867215 0.4481034163 -0.01545467816 -0.2478805103 212 64 43
54.46775071 57.86373479 -58.01691132 0.3380532879 0.01350089655 -0.3351492753 197 64 58
77.68080248 5.42734791 -14.38268991 0.5163796077 -0.006300381551 -0.1005191852 217 64 38
75.33301528 4.875132063 -23.54594515 0.4635125085 0.006342767712 -0.151803411 201 64 54
35.86068566 -55.04325955 -71.74415247 0.2295063612 -0.005308503987 -0.4450691223 207 64 48
36.93227208 -25.04917446 -70.76038566 0.2491482609 -0.00456764823 -0.4388021121 208 64 47
-81.6383272 8.631021157 -7.133067722 -0.5104927462 -0.004537296888 -0.04036055616 211 64 44
66.77961812 -58.20967664 -42.5857762 0.425868836 0.004676074831 -0.266441135 207 64 48
-74.37694751 22.87472456 34.05951992 -0.5027550109 -0.009052724869 0.2094732337 225 64 30
-81.97522713 24.70768114 1.234461602 -0.5120961158 0.008965317453 -0.001653640485 211 64 44
58.70956246 18.10030848 -53.27738491 0.3931576383 -0.001614580156 -0.354071906 218 64 37
56.42478294 7.678194466 -55.81910998 0.3577153724 0.004567040798 -0.3530365575 208 64 47
48.4387906 17.59034132 -63.13170936 0.3133784155 -0.001980061676 -0.3924025937 207 64 48
35.86068566 -55.04325955 -71.74415247 0.2295063612 -0.005308503987 -0.4450691223 207 64 48
-77.08655778 -20.22750531 27.26368967 -0.4905569405 0.005140730095 0.1573438893 213 64 42
44.46719802 -3.342533498 -66.08632173 0.2687087225 0.001618945667 -0.3964084545 198 64 57
67.11765528 14.79902615 -42.18906663 0.4342131176 0.0004370222752 -0.2668578982 210 64 45
40.06017596 59.05323369 -69.20357566 0.2255661661 0.006939664896 -0.4333859628 202 64 53
57.24026254 -24.4395092 -55.06539382 0.3837481933 0.00478571583 -0.3594906571 217 64 38
-58.40452993 11.03334334 56.68330431 -0.3660974463 -0.0006973143228 0.3580386222 211 64 44
69.73145173 -13.22183429 -37.41620763 0.450704522 -0.003611500565 -0.2361037575 210 64 45
48.99174025 -48.49219775 -63.08030005 0.3132071954 -0.02771597717 -0.3822181621 204 64 51
77.99016333 -28.74119022 -12.32768834 0.5040028718 -0.0006399531094 -0.06888425582 210 64 45
72.54101421 -25.53662298 -31.30437758 0.4660726862 -0.008619233059 -0.1997990091 209 64 46
57.24026254 -24.4395092 -55.06539382 0.3837481933 0.00478571583 -0.3594906571 217 64 38
60.98349209 12.85216928 -50.74364623 0.3954376999 0.006233546672 -0.335607883 214 64 41
-81.867679 -31.21191836 3.213292592 -0.5149004734 -0.003688780832 0.01462880721 213 64 42
58.67860534 -55.77792061 -53.98352117 0.3846476894 -0.000974569524 -0.3403403801 212 64 43
-81.65151233 44.83916558 5.642573093 -0.5589213359 0.006287660461 0.04397631428 232 64 23
-79.48284315 -43.83303555 20.34203816 -0.4760435974 -0.005036243855 0.1244119574 203 64 52
57.24026254 -24.4395092 -55.06539382 0.3837481933 0.00478571583 -0.3594906571 217 64 38
68.49596933 16.10421764 -40.00108921 0.4496961233 0.001928643739 -0.2671196078 216 64 39
-72.08409664 57.16282324 38.6234694 -0.4131360451 2.442687437e-05 0.2261151728 194 64 61
48.99174025 -48.49219775 -63.08030005 0.3132071954 -0.02771597717 -0.3822181621 204 64 51
-80.28107643 -5.453413804 15.97024343 -0.4710761107 0.001222076103 0.07969822762 197 64 58
73.83983832 27.51363568 -28.56565572 0.4838724508 0.005234941957 -0.189767535 215 64 40
45.02411352 -20.06232436 -65.76428328 0.3060153854 -0.001188483477 -0.4283550737 217 64 38
-81.81767542 -28.37554964 -2.713460262 -0.4996306424 -0.00290807497 -0.03427421815 207 64 48
70.33616397 15.7889225 -36.24385973 0.4736583966 0.005398420009 -0.2550715729 222 64 33
30.04885889 -16.38261166 -74.30719004 0.2011606291 0.001300103996 -0.470481837 211 64 44
51.96431804 49.04309228 -60.61392535 0.3170809505 0.006790919407 -0.3634220454 199 64 56
47.77353541 5.775557093 -63.55572287 0.3216029202 0.003841761654 -0.4081937904 215 64 40
-76.29752862 -47.80064692 29.51052328 -0.4588175292 -0.00390510959 0.1785397443 203 64 52
45.57110289 -58.08765279 -65.54934129 0.3148234343 -0.01517250922 -0.4170515983 216 64 39
51.18080239 -25.06204982 -61.0576062 0.3232987539 0.004116247322 -0.373582114 204 64 51
-73.51585051 39.93302301 35.87089973 -0.4959494383 0.0007406283431 0.2369729225 227 64 28
45.57110289 -58.08765279 -65.54934129 0.3148234343 -0.01517250922 -0.4170515983 216 64 39
61.38312451 -58.13907442 -50.59834843 0.3942721415 -0.01996011533 -0.3075430682 207 64 48
69.84990962 32.13939085 -37.3570506 0.4382203861 0.002642352001 -0.2219213893 203 64 52
53.35112616 -39.89889429 -58.94733663 0.3215513056 -0.00412625494 -0.3565820461 198 64 57
38.24418207 21.05780682 -70.19566051 0.241994199 -0.003879250317 -0.4305527661 204 64 51
47.86441286 -54.60625039 -63.90949299 0.3276576262 -0.01149800117 -0.4174453446 219 64 36
-75.06396542 -34.48922174 32.19200593 -0.499722113 -0.008140148683 0.2345671945 228 64 27
60.59907583 -31.40529096 -51.14796799 0.3874375751 -0.004836481032 -0.3256894899 209 64 46
76.6772259 9.350607073 -18.77050255 0.4840412208 0.007785423 -0.1252685598 206 64 49
51.99641277 3.127642614 -60.21226931 0.3268714983 -0.0009351830048 -0.3714194586 204 64 51
-6.135467639 -29.60717191 80.47150334 -0.03219808014 -0.0006863401988 0.5231526089 216 64 39
43.54177133 45.25412837 -66.87777794 0.2812296419 0.003229606349 -0.4163648283 207 64 48
56.56358999 7.14672581 -55.68491493 0.3552385143 0.00602948628 -0.3447873299 204 64 51
51.61531757 -51.58008639 -60.7032132 0.347985821 -0.004655191307 -0.3931428385 217 64 38
61.38493899 -16.52133972 -50.37260218 0.3672520072 0.001920185283 -0.2773906311 190 64 65
-80.76511278 53.32537577 14.1726797 -0.5010340044 0.006491296147 0.08759940675 210 64 45
56.56358999 7.14672581 -55.68491493 0.3552385143 0.00602948628 -0.3447873299 204 64 51
-81.77280383 44.46599538 5.276625626 -0.5532907356 0.01110306218 0.03999836159 229 64 26
-46.02633851 -28.84126552 67.19617123 -0.2977890973 0.007479968845 0.4418285516 220 64 35
45.38903476 15.69008908 -65.53691824 0.277656715 0.001861390051 -0.3976405133 200 64 55
59.59052679 -21.82341392 -52.45632258 0.4119384981 -0.002155182978 -0.3603579649 226 64 29
66.69823703 -2.153977677 -42.56457223 0.4485635442 -0.003878528272 -0.2841475447 219 64 36
78.51792803 -41.99134431 7.142817318 0.5169346631 0.008129188236 0.0523164329 215 64 40
56.56358999 7.14672581 -55.68491493 0.3552385143 0.00602948628 -0.3447873299 204 64 51
37.67711975 -4.032816272 -70.28902675 0.2483476025 -0.001926546179 -0.4511705647 213 64 42
45.83239319 -58.28179414 -65.28399717 0.3203860602 -0.01620953962 -0.4182152935 218 64 37
-74.67259659 53.14250137 33.19955146 -0.4543786005 0.005785230632 0.1963505285 204 64 51
73.00466472 -22.46361408 -30.33227084 0.4829477897 0.009206357392 -0.1964400125 215 64 40
42.25477177 -16.33302966 -67.58076534 0.2972131243 -0.006657995331 -0.4387526147 219 64 36
56.78880128 -44.0526804 -55.49326722 0.3708329217 -0.01091538746 -0.3567447982 213 64 42
76.82782291 58.12765242 -19.19474924 0.5044815602 0.01054398294 -0.1197917578 214 64 41
42.35894137 27.31310566 -67.63374757 0.2889854939 0.006628132095 -0.4315956117 214 64 41
53.68398055 -45.58732383 -58.76457631 0.3593588867 -0.009480085536 -0.3704441973 213 64 42
-77.8488659 -59.96293854 25.7641209 -0.5046976817 0.007824911204 0.1592043735 219 64 36
53.67486327 -10.35063526 -58.52225438 0.3672179788 -0.0008774286559 -0.3795039547 218 64 37
77.80740762 -57.48664674 -14.18261433 0.520807236 0.001295806147 -0.1021488808 219 64 36
43.49152572 -36.20807154 -66.80610373 0.2924984614 -0.004595830331 -0.4334451581 216 64 39
41.55975404 -12.04084661 -68.1146851 0.2911119614 -0.008272020344 -0.4310226521 215 64 40
64.0890821 -45.68585641 -46.91889281 0.417738361 0.01593627699 -0.3087553749 215 64 40
-76.93729664 -41.16755907 27.94147759 -0.4975991191 0.006916333 0.1789182087 218 64 37
64.0890821 -45.68585641 -46.91889281 0.417738361 0.01593627699 -0.3087553749 215 64 40
53.67486327 -10.35063526 -58.52225438 0.3672179788 -0.0008774286559 -0.3795039547 218 64 37
65.69127325 31.6019031 -44.4944871 0.4493929934 0.004121854034 -0.2855663376 220 64 35
45.83827962 -57.92602303 -65.26243341 0.3207418364 -0.01729622368 -0.4186760754 218 64 37
73.2313849 47.27235981 -30.28241851 0.4667623435 0.003092826903 -0.1974281753 209 64 46
53.67486327 -10.35063526 -58.52225438 0.3672179788 -0.0008774286559 -0.3795039547 218 64 37
56.62325882 2.950014715 -55.62794231 0.3451859774 0.006496596132 -0.3191603674 194 64 61
62.89828679 -47.13458372 -48.41344217 0.3929433119 -0.0007369222522 -0.2941555338 203 64 52
45.83827962 -57.92602303 -65.26243341 0.3207418364 -0.01729622368 -0.4186760754 218 64 37
59.69809622 25.76827321 -52.43175424 0.3788935661 0.001344411275 -0.3388942281 210 64 45
-67.10308204 40.20494294 46.55971617 -0.4228983546 -0.008684754458 0.299007468 214 64 41
56.04218072 12.75442842 -56.20945615 0.3631004226 -0.001255228674 -0.3630497683 212 64 43
77.68463634 -33.05231358 -14.66078622 0.4541412105 0.006613126439 -0.07150976116 190 64 65
28.61332572 35.14695272 -74.9037437 0.1934771701 -0.003236029845 -0.4736287106 211 64 44
56.49394211 3.744815187 -55.74623765 0.3440084421 0.00498517545 -0.324841085 195 64 60
45.26012287 -30.96795859 -65.70792943 0.3007600733 0.0004707944786 -0.4254479261 215 64 40
-76.31277932 -55.01153393 29.52772199 -0.5267205244 -0.001061973586 0.1833085651 230 64 25
45.26012287 -30.96795859 -65.70792943 0.3007600733 0.0004707944786 -0.4254479261 215 64 40
-75.13181816 56.61259763 32.54765226 -0.4332963703 0.01216530619 0.1908619999 196 64 59
54.8771789 -59.06363008 -57.99524384 0.3374336939 -0.00478297428 -0.3575922689 203 64 52
62.65248801 -29.78965646 -48.72601791 0.4098218837 -0.007959041381 -0.3038444772 211 64 44
45.26012287 -30.96795859 -65.70792943 0.3007600733 0.0004707944786 -0.4254479261 215 64 40
78.50800689 16.63028562 -8.342351412 0.5049334668 -0.00410486169 -0.05593178655 210 64 45
43.29375966 -50.45629071 -67.16311537 0.2848020295 -0.002959285872 -0.4465871866 219 64 36
65.74621404 -32.70216191 -44.24978398 0.4514130823 -0.001687950589 -0.2842994067 220 64 35
32.12967419 43.26898709 -73.33874111 0.2149013992 0.01215460945 -0.4607120526 210 64 45
-76.87514655 -57.27046269 28.44339881 -0.513601431 -0.002943098609 0.1728625555 224 64 31
-77.83621786 -0.3630337098 25.41338262 -0.5014045623 -0.003750585116 0.164847038 218 64 37
53.06312731 -46.79236523 -59.27295239 0.3540588239 -0.007163434213 -0.3707518 212 64 43
44.87701621 -31.31897295 -66.12547828 0.2993702974 0.0018348566 -0.4288807507 216 64 39
54.83024423 24.51891728 -57.5202723 0.3564389493 -0.0005586143886 -0.3648654604 211 64 44
52.91074195 5.399670203 -59.29046751 0.328380707 -0.0009070994708 -0.3639266994 202 64 53
-32.08940928 -41.74691789 74.64963853 -0.1905000968 0.002151295131 0.4750460267 211 64 44
66.14320556 -15.67556549 -43.86405645 0.4325665519 -0.005073857565 -0.2798250031 213 64 42
44.73138841 -2.98274554 -65.81585924 0.2783327121 0.00170752969 -0.402623948 202 64 53
73.08448728 -11.63624148 -29.97749871 0.4297965461 -0.001793068289 -0.1854926169 193 64 62
62.64726598 14.85635524 -29.25718169 0.5100491785 0.01804947384 -0.2457142657 234 64 21
61.69965672 -36.23558338 -50.16501107 0.3816876796 -0.003939486607 -0.288111748 197 64 58
52.64697462 53.49351215 -59.82114601 0.3348608124 0.01139728001 -0.3694169675 206 64 49
58.04155846 -28.2685606 -54.3250942 0.3679925349 0.00610943934 -0.3386260249 207 64 48
51.66789296 -42.1496619 -60.67007968 0.3390193419 -0.01132439055 -0.3747699463 209 64 46
59.92462715 -30.94015941 -52.16135084 0.394290311 0.001976657476 -0.3464517927 217 64 38
32.45859834 26.79387462 -73.24060012 0.2170704155 0.004587654554 -0.4671622326 213 64 42
73.78434541 -11.22811434 -28.35975236 0.4465407532 -0.001255445384 -0.1757825244 198 64 57
36.00704869 32.59385903 -71.34865703 0.2336723787 -0.007181990659 -0.4554499796 211 64 44
66.57771748 -37.71582108 -42.89012194 0.4199379479 -0.004122720203 -0.2775670759 208 64 47
65.82066815 -51.41000205 -44.29695894 0.4474435378 -0.001829165736 -0.2879767854 220 64 35
59.19980175 5.747414672 -52.77249576 0.3723980876 -0.004272290979 -0.305613153 199 64 56
43.31661098 -17.20875036 -66.91947714 0.2860935353 -0.004591760202 -0.4245705477 211 64 44
-81.9082897 59.57429041 3.416546877 -0.5107806252 0.02280887032 0.02215022018 211 64 44
44.73138841 -2.98274554 -65.81585924 0.2783327121 0.00170752969 -0.402623948 202 64 53
63.24936544 -43.7322989 -48.02953802 0.3999781715 0.00594439155 -0.295077074 205 64 50
32.45859834 26.79387462 -73.24060012 0.2170704155 0.004587654554 -0.4671622326 213 64 42
55.2092841 -25.21121522 -57.438881 0.3650508225 0.006146007575 -0.3594388302 212 64 43
78.76237289 -58.90907853 -4.934600064 0.4827130204 -0.01496209605 -0.02317504621 200 64 55
41.84144264 -0.9013932537 -67.9698123 0.2653890594 -0.002794108154 -0.4107424609 202 64 53
-69.5064753 -12.3452653 43.14089295 -0.434062515 0.00414620489 0.2660522989 210 64 45
51.66789296 -42.1496619 -60.67007968 0.3390193419 -0.01132439055 -0.3747699463 209 64 46
-80.65904954 -38.06634776 14.38529556 -0.5230320683 0.007053746446 0.09619733186 220 64 35
55.2092841 -25.21121522 -57.438881 0.3650508225 0.006146007575 -0.3594388302 212 64 43
38.45045891 -42.87693572 -70.154447 0.2509446819 -0.00315252956 -0.4468316991 212 64 43
53.55838418 14.31636072 -58.65749895 0.3433352734 -0.003043123946 -0.3778223329 211 64 44
73.05801711 -34.8290889 -30.16091874 0.4478289854 -0.007630048969 -0.1820884442 200 64 55
68.53095415 -14.2137871 -39.57624546 0.444275291 -0.00620075055 -0.243077729 209 64 46
76.23041127 37.28171382 -20.7698725 0.5056345205 0.01653031416 -0.1283097273 216 64 39
71.64590812 0.6714222477 -33.4314399 0.4669928098 -0.001662171359 -0.2185210353 213 64 42
43.60145087 -55.36328441 -66.90483903 0.2845825063 -0.004540348269 -0.4212775218 210 64 45
-81.74516904 0.8683464447 -5.384794276 -0.5430268867 0.0004470543225 -0.03316394376 225 64 30
39.38316233 51.06790007 -69.70745244 0.26637167 0.00132885983 -0.4356121654 211 64 44
48.83091254 -32.60053169 -63.15025831 0.3490131936 -0.004392035947 -0.4077092266 222 64 33
63.41024625 -14.97889349 -47.72418628 0.3755559984 -0.002001520344 -0.2807338831 194 64 61
46.24204421 -13.77153015 -65.0136051 0.3233548092 -0.008060949393 -0.4407639564 226 64 29
-79.69615315 5.559603305 18.48044991 -0.4981959553 0.0003101812228 0.1220085116 212 64 43
77.50652968 55.55029295 -16.81570838 0.4597513495 0.002744433791 -0.09424972886 194 64 61
43.4904767 54.58736389 -67.08078114 0.281810381 0.01373885833 -0.3885946667 198 64 57
52.72600977 42.6431289 -59.63611212 0.35550825 -0.0002683351008 -0.3749026869 213 64 42
77.46874224 -57.22845371 -16.27585103 0.4843757121 0.004061851557 -0.09431178388 204 64 51
52.40202069 -44.00554091 -59.92177878 0.3497455467 -0.008831768067 -0.3694194985 210 64 45
62.67430091 -39.37661181 -48.91218225 0.3889525932 -0.000489867488 -0.2750080292 197 64 58
59.45143423 -49.49160716 -52.70894946 0.421349002 0.009913545048 -0.3563460302 228 64 27
77.63083141 23.49531118 -14.75375531 0.5011042652 -0.005780045713 -0.1022557725 211 64 44
62.67430091 -39.37661181 -48.91218225 0.3889525932 -0.000489867488 -0.2750080292 197 64 58
52.43199463 -35.99862877 -59.85721883 0.3352153676 -0.005472899962 -0.3746411454 208 64 47
47.78122368 1.923756021 -63.79439956 0.3175086672 0.001774592802 -0.4089430277 214 64 41
37.9080692 -2.119307218 -70.03331788 0.2399953583 -0.0001613364176 -0.4274480774 202 64 53
54.56607093 48.841647 -58.24089916 0.3604628979 0.01299128394 -0.3688194228 213 64 42
57.58389133 47.2202827 -54.90138908 0.3812252375 -0.002786447318 -0.3410491178 211 64 44
-61.10473598 1.472568106 54.03432428 -0.3741011605 -0.001875813717 0.3468146471 211 64 44
54.56607093 48.841647 -58.24089916 0.3604628979 0.01299128394 -0.3688194228 213 64 42
78.63688348 10.94152448 -6.883004309 0.5023736685 -0.002793050369 -0.04477894818 208 64 47
35.27320697 -3.415407543 -71.71877333 0.2512007993 -0.00586381352 -0.4789608913 223 64 32
67.32511337 -0.3862815481 -41.76180309 0.4576281132 -0.007146644565 -0.2799151882 222 64 33
46.72742192 50.54720035 -64.71945568 0.3245564834 -6.893658995e-05 -0.4095970343 216 64 39
